ply
format ascii 1.0
element vertex 1347
property float x
property float y
property float z
property float nx
property float ny
property float nz
element face 0
property list uchar uint vertex_indices
end_header
0.94062 0.66631 0.91484 0.75017 0 0.66124
0.91575 0.66631 0.93982 0.66134 0 0.75009
0.95157 0.66631 0.90122 0.79008 0 0.61301
0.044421 -1 -0.39979 0 -1 0
0.014807 -1 -0.39979 0 -1 0
0.39979 1 -0.57747 0 1 0
0.39979 1 -0.6367 0 1 0
0.48863 -1 0.72554 0 -1 0
0.54786 -1 0.72554 0 -1 0
-0.51218 0.96193 -0.38191 0.9029 0.42707 -0.048734
-0.48503 0.94337 -0.44423 0.69827 0.63283 0.33458
-0.50131 0.96773 -0.44423 0.8183 0.38707 0.42493
0.16288 1 0.39979 0 1 0
-1 -0.28133 0.074035 -1 0 0
-1 -0.28133 0.014807 -1 0 0
-1 -0.31095 0.074035 -1 0 0
-1 -0.25172 0.044421 -1 0 0
-1 -0.31095 0.014807 -1 0 0
0.99869 -0.77924 0.19249 0.99557 -0.094063 0
0.99864 -0.77984 0.10365 0.99557 -0.094063 0
0.99956 -0.76902 0.28133 0.99951 -0.031426 0
0.9998 -0.76148 -0.044421 0.99951 -0.03142 0
0.9998 -0.76148 -0.074035 0.99951 -0.03142 0
0.99994 -0.75696 -0.13326 0.99951 -0.03142 0
0.99989 -0.75877 -0.10365 0.99951 -0.031426 0
0.99869 -0.77924 0.31095 0.99557 -0.094063 0
0.99997 -0.75606 -0.2221 0.99951 -0.031229 0
0.99932 -0.77263 0.34056 0.99555 -0.094259 0
0.99807 -0.78584 0.13326 0.99557 -0.094063 0
0.99967 -0.76571 -0.16288 0.99951 -0.03142 0
0.99717 -0.7915 0.28133 0.98767 -0.15654 0
0.4294 1 0.044421 0 1 0
0.4294 1 0.10365 0 1 0
0.45902 1 0.074035 0 1 0
0.4294 1 0.014807 0 1 0
0.45902 1 0.044421 0 1 0
0.4294 1 0.13326 0 1 0
0.45902 1 0.014807 0 1 0
-0.13326 1 0.014807 0 1 0
-0.13326 1 -0.014807 0 1 0
-1 0.2221 -0.10365 -1 0 0
-1 0.25172 -0.13326 -1 0 0
-1 0.2221 -0.074035 -1 0 0
-1 0.2221 -0.13326 -1 0 0
-1 0.19249 -0.10365 -1 0 0
-1 0.19249 -0.074035 -1 0 0
-0.8783 -0.96664 -0.044421 -0.50902 -0.86075 0
-0.86908 -0.97177 -0.074035 -0.454 -0.891 0
-0.85442 -0.97885 -0.044421 -0.39711 -0.91777 0
-0.60708 -1 -0.37017 0 -1 0
-0.60708 -1 -0.4294 0 -1 0
-0.60708 -1 -0.34056 0 -1 0
-0.60708 -1 -0.28133 0 -1 0
-0.60708 -1 -0.31095 0 -1 0
-0.60708 -1 -0.25172 0 -1 0
-0.60708 -1 -0.2221 0 -1 0
-0.60708 -1 -0.45902 0 -1 0
-0.60708 -1 -0.19249 0 -1 0
-0.57747 -1 -0.34056 0 -1 0
-0.60708 -1 -0.48863 0 -1 0
-0.57747 -1 -0.37017 0 -1 0
-0.57747 -1 -0.31095 0 -1 0
-0.57747 -1 -0.39979 0 -1 0
-0.57747 -1 -0.28133 0 -1 0
-0.57747 -1 -0.4294 0 -1 0
0.4294 -0.13326 -1 0 0 -1
0.4294 -0.16288 -1 0 0 -1
-0.75636 -0.99996 0.074035 -0.031426 -0.99951 0
-0.7642 -0.99972 0.014807 -0.03142 -0.99951 0
-0.76902 -0.99956 0.10365 -0.03142 -0.99951 0
0.66631 0.57747 1 0 0 1
0.66631 0.6367 1 0 0 1
0.6367 0.60708 1 0 0 1
0.88427 0.13326 -0.96311 0.50911 0 -0.8607
0.86935 0.13326 -0.97163 0.454 0 -0.891
0.86532 0.16288 -0.97369 0.45392 0 -0.89104
0.88064 0.2221 -0.96526 0.50902 0 -0.86075
0.88116 0.10365 -0.96495 0.50911 0 -0.8607
0.84833 -0.044421 -0.98149 0.39721 0 -0.91773
-0.72554 -0.89009 -0.95934 0 -0.56207 -0.82709
1 0.60708 0.39979 1 0 0
1 0.60708 0.45902 1 0 0
1 0.60708 0.37017 1 0 0
1 0.57747 0.39979 1 0 0
1 0.60708 0.48863 1 0 0
1 0.57747 0.37017 1 0 0
1 0.57747 0.4294 1 0 0
1 0.6367 0.45902 1 0 0
1 0.60708 0.34056 1 0 0
1 0.6367 0.4294 1 0 0
1 0.6367 0.48863 1 0 0
1 0.57747 0.34056 1 0 0
1 0.57747 0.45902 1 0 0
0.2221 0.25172 1 0 0 1
0.16288 0.25172 1 0 0 1
0.19249 0.2221 1 0 0 1
0.24147 0.26105 1 0.79463 0.58938 0.1456
0.19249 0.28133 1 0 0 1
0.16288 0.2221 1 0 0 1
0.22799 0.28906 0.98098 0.87727 0.41496 0.24128
0.2221 0.2221 1 0 0 1
0.24899 0.26722 0.96594 0.67075 0.60789 0.42493
-0.19249 -1 0.10365 0 -1 0
-0.25172 -1 0.16288 0 -1 0
-0.28133 -1 0.16288 0 -1 0
-0.13326 -0.69593 -1 0 0 -1
-0.074035 -0.69593 -1 0 0 -1
-0.16288 -0.69593 -1 0 0 -1
-0.19249 -0.69593 -1 0 0 -1
-0.60709 0.77864 -0.99875 0 0.094063 -0.99557
-0.66631 0.79686 -0.99632 0 0.15654 -0.98767
-1 0.2221 -0.4294 -1 0 0
-1 0.16288 -0.4294 -1 0 0
-1 0.25172 -0.4294 -1 0 0
-1 0.19249 -0.60708 -1 0 0
-1 0.13326 -0.60708 -1 0 0
-1 0.2221 -0.60708 -1 0 0
-1 -0.2221 -0.60708 -1 0 0
-1 -0.19249 -0.60708 -1 0 0
-1 0.25172 -0.60708 -1 0 0
-1 -0.25172 -0.60708 -1 0 0
-1 -0.16288 -0.60708 -1 0 0
-1 0.28133 -0.60708 -1 0 0
-1 0.31095 -0.60708 -1 0 0
-1 0.34056 -0.60708 -1 0 0
-1 0.37017 -0.60708 -1 0 0
-1 0.39979 -0.60708 -1 0 0
-1 0.4294 -0.60708 -1 0 0
-1 -0.4294 -0.60708 -1 0 0
-1 -0.37017 -0.57747 -1 0 0
-1 0.45902 -0.60708 -1 0 0
-1 0.39979 -0.57747 -1 0 0
-1 -0.39979 -0.57747 -1 0 0
-1 -0.45902 -0.60708 -1 0 0
-1 0.4294 -0.57747 -1 0 0
0.074035 -0.16288 -1 0 0 -1
-0.39979 -1 -0.66631 0 -1 0
-0.37017 -1 -0.66631 0 -1 0
-0.34056 -1 -0.66631 0 -1 0
-0.19249 -1 -0.66631 0 -1 0
-0.2221 -1 -0.66631 0 -1 0
-0.31095 -1 -0.66631 0 -1 0
-0.28133 -1 -0.66631 0 -1 0
-0.25172 -1 -0.66631 0 -1 0
-0.16288 -1 -0.66631 0 -1 0
-0.13326 -1 -0.66631 0 -1 0
0.92457 -0.91542 -0.82974 0.71654 -0.64026 -0.27681
0.95274 -0.88598 -0.81675 0.81441 -0.50772 -0.28099
0.93689 -0.89362 -0.84319 0.71878 -0.58073 -0.38225
0.77773 0.69593 -0.99884 0.094063 0 -0.99557
0.43713 0.96562 0.22623 -0.45284 0.49967 0.73842
0.43403 0.98117 0.2167 -0.38306 0.34715 0.85601
0.44989 0.9342 0.26163 -0.47977 0.64685 0.5928
0.45299 0.94976 0.2488 -0.54082 0.59675 0.5928
0.44382 0.99583 0.2167 -0.44342 0.26575 0.85601
0.45938 0.92265 0.28979 -0.60789 0.67075 0.42493
0.42175 0.90009 0.28979 -0.38707 0.8183 0.42493
0.43753 0.90165 0.30484 -0.41496 0.87726 0.24128
-1 -0.16288 0.074035 -1 0 0
-0.25172 0.60708 1 0 0 1
-0.31095 0.60708 1 0 0 1
-0.2221 0.60708 1 0 0 1
-0.34056 0.60708 1 0 0 1
-0.19249 0.60708 1 0 0 1
-0.28133 0.57747 1 0 0 1
-0.25172 0.57747 1 0 0 1
-0.2221 0.57747 1 0 0 1
-0.31095 0.57747 1 0 0 1
-0.28133 0.6367 1 0 0 1
-0.25172 0.6367 1 0 0 1
-0.19249 0.57747 1 0 0 1
-0.34056 0.57747 1 0 0 1
-0.2221 0.6367 1 0 0 1
-0.16288 0.60708 1 0 0 1
-0.31095 0.6367 1 0 0 1
0.28133 -0.074035 1 0 0 1
0.044421 0.8547 0.97873 0 0.39711 0.91777
0.10365 0.87015 0.97122 0 0.45392 0.89104
0.014807 0.86021 0.97629 0 0.454 0.891
0.014807 0.84444 0.98311 0 0.33866 0.94091
0.10365 0.84584 0.98257 0 0.39721 0.91773
-0.99992 -0.54786 0.75787 -0.99951 0 0.03142
0.4667 0.91373 0.36807 -0.58939 0.79462 -0.1456
0.47676 0.92599 0.38388 -0.66437 0.73308 -0.1456
0.48902 0.93605 0.36807 -0.7401 0.67073 -0.048739
0.46522 0.91553 0.32034 -0.57813 0.77945 0.24127
0.45401 0.90431 0.33615 -0.50859 0.84861 0.1456
0.49843 0.94874 0.33615 -0.84861 0.50859 0.1456
0.4965 0.95003 0.38388 -0.77945 0.57813 -0.24127
0.45057 0.90946 0.39938 -0.57814 0.77945 -0.24128
0.4801 0.94337 0.41443 -0.72706 0.53927 -0.42493
-1 0.57747 -0.69593 -1 0 0
-1 0.6367 -0.69593 -1 0 0
-0.98702 -0.80282 0.81774 -0.9611 -0.16215 0.2236
-0.97692 -0.80277 0.84737 -0.91007 -0.22629 0.34724
-0.98844 -0.75516 0.82937 -0.96028 0 0.27905
-0.97856 -0.81834 0.83291 -0.91343 -0.28871 0.28685
0.28974 -0.51193 0.99649 0.42303 0.89434 0.14561
0.32115 -0.51502 0.96594 0.31744 0.88729 0.33458
-0.37017 -1 -0.6367 0 -1 0
-0.4294 -1 -0.6367 0 -1 0
-0.34056 -1 -0.6367 0 -1 0
-0.31095 -1 -0.6367 0 -1 0
-0.28133 -1 -0.6367 0 -1 0
-0.25172 -1 -0.6367 0 -1 0
-0.2221 -1 -0.6367 0 -1 0
-0.45902 -1 -0.6367 0 -1 0
-0.19249 -1 -0.6367 0 -1 0
-0.16288 -1 -0.6367 0 -1 0
-0.48863 -1 -0.6367 0 -1 0
0.39979 -1 -0.6367 0 -1 0
0.37017 -1 -0.6367 0 -1 0
-0.13326 -1 -0.6367 0 -1 0
-0.75516 -0.25172 -1 -0.031426 0 -0.99951
-0.75817 -0.19249 -0.9999 -0.031426 0 -0.99951
-0.75998 -0.2221 -0.99985 -0.03142 0 -0.99951
-0.76179 -0.16288 -0.99979 -0.031426 0 -0.99951
-0.76209 -0.34056 -0.99978 -0.031426 0 -0.99951
-0.76631 -0.13326 -0.99965 -0.03142 0 -0.99951
-0.76028 -0.10365 -0.99984 -0.03142 0 -0.99951
0.57747 -1 0.6367 0 -1 0
0.6367 -1 0.6367 0 -1 0
0.60708 -1 0.60708 0 -1 0
0.6367 -1 0.60708 0 -1 0
-0.10365 1 0.72554 0 1 0
-0.044421 1 0.72554 0 1 0
-0.13326 1 0.72554 0 1 0
-0.014807 1 0.72554 0 1 0
-0.16288 1 0.72554 0 1 0
-0.19249 1 0.72554 0 1 0
-0.2221 1 0.72554 0 1 0
-0.25172 1 0.72554 0 1 0
-0.31095 1 0.69593 0 1 0
-0.28133 1 0.72554 0 1 0
-0.28133 1 0.69593 0 1 0
-0.34056 1 0.69593 0 1 0
0.97727 0.2434 -0.47239 0.44183 0.73721 0.51118
0.7868 0.96657 -0.87454 0.16135 0.8728 -0.46063
0.75516 0.94954 -0.90384 0 0.79017 -0.61289
-0.87257 -0.96999 -0.19249 -0.45416 -0.89092 0
-0.87284 -0.96985 -0.13326 -0.45416 -0.89092 0
-0.85553 -0.97837 -0.34056 -0.39728 -0.9177 0
-0.86666 -0.973 -0.37017 -0.45392 -0.89104 0
-0.87467 -0.96879 -0.28133 -0.50911 -0.8607 0
-0.87467 -0.96879 -0.10365 -0.50902 -0.86075 0
-0.85581 -0.97825 -0.16288 -0.39704 -0.9178 0
-0.85304 -0.97945 -0.39979 -0.39711 -0.91777 0
-0.85636 -0.97802 -0.10365 -0.39721 -0.91773 0
-0.88064 -0.96526 -0.16288 -0.50902 -0.86075 0
-0.85913 -0.97682 -0.4294 -0.39711 -0.91777 0
-0.87467 -0.96879 -0.39979 -0.50911 -0.8607 0
0.87284 -0.51824 -0.96985 0.45416 0 -0.89092
0.8866 -0.48863 -0.96171 0.56207 0 -0.82709
0.91892 -0.51824 -0.93703 0.66145 0 -0.74999
0.90527 -0.48863 -0.94843 0.61289 0 -0.79017
0.88609 -0.54786 -0.96204 0.50888 0 -0.86084
0.86962 -0.48863 -0.97149 0.45392 0 -0.89104
0.92208 -0.48863 -0.93424 0.66145 0 -0.74999
0.98921 -0.40637 -0.53237 0.29256 0.1763 0.93985
1 -0.39979 -0.57747 1 0 0
1 -0.37017 -0.57747 1 0 0
1 -0.4294 -0.54786 1 0 0
0.99358 -0.37197 -0.53773 0.25665 -0.009044 0.96646
1 -0.37017 -0.60708 1 0 0
0.80722 -0.99428 -0.6367 0.21819 -0.97591 0
0.79895 -0.99599 -0.69593 0.15654 -0.98767 0
-1 -0.6367 -0.48863 -1 0 0
-1 -0.6367 -0.54786 -1 0 0
-1 -0.6367 -0.45902 -1 0 0
0.16288 -0.92617 -0.93023 0 -0.70711 -0.70711
0.10365 -0.90503 -0.94862 0 -0.61289 -0.79017
-0.78194 0.99844 0.13326 -0.094277 0.99555 0
-0.77203 0.99937 0.19249 -0.094063 0.99557 0
-0.78254 0.99838 0.16288 -0.094082 0.99556 0
-0.79269 0.99698 0.074035 -0.15632 0.98771 0
-0.4294 0.80516 -0.99474 0 0.21819 -0.97591
-0.48863 0.79091 -0.99727 0 0.15651 -0.98768
-0.45902 0.82502 -0.9897 0 0.27887 -0.96033
-0.45902 0.77533 -0.99906 0 0.094063 -0.99557
-0.4294 0.82531 -0.98962 0 0.27887 -0.96033
1 -0.2221 -0.48863 1 0 0
1 0.66631 0.54786 1 0 0
1 0.66631 0.60708 1 0 0
-0.34056 0.82473 0.98978 0 0.27887 0.96033
0.39979 0.82358 0.99012 0 0.27887 0.96033
-0.28133 0.84273 0.98373 0 0.33873 0.94089
-0.31095 0.84861 0.98137 0 0.39721 0.91773
0.37017 0.83592 0.98618 0 0.33873 0.94089
-0.2221 0.8256 0.98953 0 0.27905 0.96028
0.60709 0.98373 0.84273 0 0.94089 0.33873
0.66631 0.98618 0.83592 0 0.94089 0.33873
-0.88012 0.39979 0.96557 -0.50911 0 0.8607
-0.87596 0.34056 0.96803 -0.50911 0 0.8607
-0.87882 0.31095 0.96634 -0.50902 0 0.86075
-0.89259 0.34056 0.95765 -0.56207 0 0.82709
-0.85055 -0.4294 0.98053 -0.39721 0 0.91773
-0.88194 0.28133 0.96449 -0.50888 0 0.86084
-1 0.13326 -0.2221 -1 0 0
-1 0.16288 -0.19249 -1 0 0
-1 0.16288 -0.25172 -1 0 0
-1 0.19249 -0.2221 -1 0 0
-1 0.13326 -0.19249 -1 0 0
-1 0.19249 -0.19249 -1 0 0
-1 0.13326 -0.25172 -1 0 0
-0.044421 1 -0.51824 0 1 0
0.014807 1 -0.51824 0 1 0
-0.074035 1 -0.51824 0 1 0
0.044421 0.86693 -0.97286 0 0.454 -0.891
-0.014807 0.87337 -0.96956 0 0.50902 -0.86075
0.074035 0.8715 -0.97054 0 0.45416 -0.89092
0.074035 0.88685 -0.96154 0 0.56207 -0.82709
0.044421 0.8876 -0.96104 0 0.56207 -0.82709
0.014807 0.89134 -0.95849 0 0.56207 -0.82709
0.10365 0.88859 -0.96036 0 0.56207 -0.82709
-0.044421 0.88142 -0.9648 0 0.50902 -0.86075
0.10365 0.86854 -0.97204 0 0.45392 -0.89104
-1 -0.31095 -0.2221 -1 0 0
-1 -0.37017 -0.13326 -1 0 0
0.2221 0.69593 -1 0 0 -1
0.16288 0.69593 -1 0 0 -1
0.25172 0.69593 -1 0 0 -1
0.28133 0.69593 -1 0 0 -1
0.13326 0.69593 -1 0 0 -1
0.31095 0.69593 -1 0 0 -1
0.34056 0.69593 -1 0 0 -1
0.37017 0.69593 -1 0 0 -1
0.39979 0.69593 -1 0 0 -1
0.10365 0.69593 -1 0 0 -1
0.4294 0.69593 -1 0 0 -1
0.37017 0.72554 -1 0 0 -1
0.074035 0.69593 -1 0 0 -1
0.34056 0.72554 -1 0 0 -1
0.39979 0.72554 -1 0 0 -1
0.31095 0.72554 -1 0 0 -1
0.75516 0.91462 -0.94082 -0.000001 0.66129 -0.75013
0.69593 0.90717 -0.94695 0 0.61289 -0.79017
-0.16288 -1 0.16288 0 -1 0
-0.097598 -0.98455 0.10025 0.54162 -0.40172 -0.73842
-0.19249 -1 0.19249 0 -1 0
-0.092488 -1 0.11141 0.54118 -0.25598 -0.801
-0.083369 -0.96722 0.10025 0.55093 -0.4993 -0.66871
-0.10365 -1 0.13326 0 -1 0
-0.2221 -1 0.2221 0 -1 0
-0.13326 -1 0.16288 0 -1 0
-0.19249 -1 0.16288 0 -1 0
1 -0.2221 0.45902 1 0 0
1 -0.16288 0.4294 1 0 0
0.13326 -1 0.37017 0 -1 0
-0.014807 -1 0.4294 0 -1 0
0.014807 -1 0.4294 0 -1 0
-0.88734 -0.95882 0.78671 -0.51348 -0.85265 0.096582
-0.88609 -0.95258 0.81705 -0.51174 -0.82971 0.22294
0.16288 1 0.19249 0 1 0
0.16288 1 0.13326 0 1 0
0.19249 1 0.16288 0 1 0
0.19249 1 0.19249 0 1 0
0.16288 1 0.2221 0 1 0
0.19249 1 0.2221 0 1 0
0.13326 1 0.16288 0 1 0
0.13326 1 0.13326 0 1 0
0.13326 1 0.19249 0 1 0
0.28526 -0.41434 0.89285 0.54117 0.25599 0.801
0.30752 -0.44146 0.89285 0.35665 0.48084 0.801
0.29196 -0.44455 0.90237 0.44361 0.40201 0.801
0.2792 -0.429 0.90237 0.48083 0.35665 0.801
-0.54786 1 -0.37017 0 1 0
-0.52331 1 -0.41368 0.94137 0.23583 0.24127
-0.52357 0.99146 -0.39788 0.95969 0.24042 0.14559
-0.57747 1 -0.37017 0 1 0
-0.57747 1 -0.34056 0 1 0
-0.10365 -0.31095 -1 0 0 -1
-0.10365 -0.28133 -1 0 0 -1
-0.10365 -0.25172 -1 0 0 -1
-0.49533 0.42932 -0.9813 0.8183 -0.38707 -0.42493
-0.50265 0.43323 -1 0 0 -1
-0.85193 0.97993 -0.34056 -0.39721 0.91773 0
-0.84529 0.98281 -0.37017 -0.3389 0.94082 0
-0.8723 0.97013 -0.31095 -0.45416 0.89092 0
-0.86585 0.97341 -0.28133 -0.45392 0.89104 0
-0.13326 1 0.13326 0 1 0
-0.8723 0.66631 0.97013 -0.45416 0 0.89092
1 0.48863 -0.6367 1 0 0
1 0.45902 -0.60708 1 0 0
1 0.45902 -0.66631 1 0 0
0.82995 -0.98827 -0.60709 0.27882 -0.96034 0
0.84695 -0.98209 -0.60709 0.39704 -0.9178 0
0.60708 -1 0.66631 0 -1 0
-0.69593 -1 -0.34056 0 -1 0
-0.69593 -1 -0.31095 0 -1 0
-0.69593 -1 -0.39979 0 -1 0
-0.69593 -1 -0.28133 0 -1 0
-0.69593 -1 -0.25172 0 -1 0
-0.69593 -1 -0.2221 0 -1 0
-0.69593 -1 -0.4294 0 -1 0
-0.69593 -1 -0.45902 0 -1 0
0.38457 -0.47264 0.90237 -0.16388 0.65413 0.73842
-0.81487 -0.48863 -0.99257 -0.21819 0 -0.97591
-0.81163 -0.4294 -0.99329 -0.21804 0 -0.97594
-0.81604 -0.39979 -0.99231 -0.27905 0 -0.96028
0.41449 -0.44671 -0.92266 -0.30797 0.41521 -0.85601
0.39064 -0.45799 -0.92266 -0.17413 0.48675 -0.85601
0.38457 -0.47264 -0.93218 -0.16388 0.65413 -0.73842
0.39776 -0.48146 -0.94291 -0.22715 0.63493 -0.73842
0.37336 -0.46143 -0.92266 -0.029405 0.59794 -0.801
0.42811 -0.43553 -0.92266 -0.34715 0.38306 -0.85601
-0.57747 0.9959 0.79954 0 0.98768 0.15651
-0.25172 0.86585 -0.97341 0 0.45392 -0.89104
-0.31095 0.87882 -0.96634 0 0.50902 -0.86075
-0.28133 0.88583 -0.96219 0 0.50888 -0.86084
-0.25172 0.84889 -0.98125 0 0.39704 -0.9178
-0.34056 0.86397 -0.97437 0 0.454 -0.891
0.39979 0.93783 -0.91801 0 0.75009 -0.66134
0.4294 0.92831 -0.92809 0 0.70711 -0.70711
-0.2221 0.86639 -0.97314 0 0.45392 -0.89104
-0.34056 0.88505 -0.96265 0 0.50888 -0.86084
0.4294 0.94492 -0.90979 0 0.79017 -0.61289
0.39979 0.92163 -0.93464 0 0.66145 -0.74999
-0.2221 0.85 -0.98077 0 0.39704 -0.9178
0.37017 0.92489 -0.93151 0 0.70711 -0.70711
0.10365 1 -0.25172 0 1 0
-0.98982 0.78689 -0.8174 -0.95387 0.097256 -0.28404
-0.98324 0.81836 -0.81787 -0.94785 0.2263 -0.22441
-0.99597 0.78659 -0.78631 -0.97386 0.16132 -0.1599
-0.7918 0.48863 -0.99713 -0.15651 0 -0.98768
-0.78733 0.54786 -0.99783 -0.15651 0 -0.98768
-0.77353 0.51824 -0.99923 -0.094063 0 -0.99557
-0.80986 0.54786 -0.99369 -0.218 0 -0.97595
-0.29901 0.23022 -0.99574 -0.48444 0.80831 -0.33458
-0.25172 0.2221 -1 0 0 -1
-0.27368 0.24533 -1 -0.56139 0.7569 -0.33458
-0.28133 0.19249 -1 0 0 -1
-0.25172 0.19249 -1 0 0 -1
-0.2902 0.2434 -0.9813 -0.53927 0.72706 -0.42493
-0.31487 0.23022 -0.9813 -0.28952 0.80924 -0.51118
-0.32608 0.219 -0.99574 -0.30493 0.85232 -0.42493
-0.2221 0.2221 -1 0 0 -1
-0.2221 0.19249 -1 0 0 -1
-0.31095 0.19249 -1 0 0 -1
-0.2221 0.16288 -1 0 0 -1
-0.25392 0.26722 -0.99574 -0.67075 0.60789 -0.42493
-0.2221 0.25172 -1 0 0 -1
-0.25172 0.16288 -1 0 0 -1
-0.19249 0.19249 -1 0 0 -1
-0.30606 0.2434 -0.96759 -0.34436 0.72802 -0.5928
-0.96138 0.4294 -0.8871 -0.82709 0 -0.56207
-0.97245 0.45902 -0.86774 -0.891 0 -0.454
-0.97026 0.48863 -0.87204 -0.891 0 -0.454
-0.96787 0.39979 -0.87622 -0.86075 0 -0.50902
-0.97629 0.4294 -0.86021 -0.891 0 -0.454
-0.66631 0.014807 1 0 0 1
-0.66631 0.074035 1 0 0 1
-0.66631 -0.014807 1 0 0 1
-0.66631 0.10365 1 0 0 1
-0.6367 0.074035 1 0 0 1
-0.6367 0.044421 1 0 0 1
-0.66631 -0.044421 1 0 0 1
-0.6367 0.10365 1 0 0 1
-0.69593 0.014807 1 0 0 1
-0.95305 -0.89931 0.57747 -0.7901 -0.61298 0
-0.97136 -0.86989 0.60709 -0.891 -0.454 0
-0.9607 -0.8881 0.60709 -0.82706 -0.56211 0
0.51824 1 -0.13326 0 1 0
0.51824 1 -0.10365 0 1 0
-0.044421 1 0.45902 0 1 0
-0.10365 1 0.51824 0 1 0
-0.044421 1 0.48863 0 1 0
-0.57747 -0.97327 0.86612 0 -0.89104 0.45392
-0.54786 -0.95629 0.89458 0 -0.82709 0.56207
-0.57747 -0.94621 0.90813 0 -0.79017 0.61289
-0.54786 -0.96803 0.87596 0 -0.86079 0.50896
-0.60709 -0.96311 0.88427 0 -0.86075 0.50902
-0.60709 -0.973 0.86666 0 -0.891 0.454
-1 0.48863 -0.69593 -1 0 0
-1 0.54786 -0.69593 -1 0 0
-1 0.45902 -0.69593 -1 0 0
0.96233 0.86042 -0.83228 0.86894 0.40365 -0.28637
0.94852 0.88476 -0.83106 0.81385 0.5079 -0.28229
-0.4555 -0.50071 0.98098 0.57814 0.77945 0.24128
0.19249 1 -0.28133 0 1 0
0.2221 1 -0.25172 0 1 0
0.24899 0.99034 -0.2786 0.72802 0.34436 -0.5928
0.90765 -0.94658 0.34056 0.61301 -0.79008 0
0.9005 -0.95213 0.25172 0.61289 -0.79017 0
0.91123 -0.94381 0.28133 0.61298 -0.7901 0
0.91394 -0.94142 0.25172 0.66134 -0.75009 0
0.9119 -0.94321 0.2221 0.66124 -0.75017 0
0.90956 -0.94511 0.19249 0.61301 -0.79008 0
0.9162 -0.93942 0.39979 0.66134 -0.75009 0
0.92073 -0.93543 0.37017 0.66145 -0.74999 0
0.89558 -0.95561 0.37017 0.5622 -0.827 0
0.89483 -0.95612 0.39979 0.56207 -0.82709 0
0.91051 -0.94437 0.4294 0.61289 -0.79017 0
0.89782 -0.95409 0.044421 0.5622 -0.827 0
0.92596 -0.93044 0.34056 0.70711 -0.70711 0
-0.60708 1 -0.48863 0 1 0
-0.60708 1 -0.54786 0 1 0
-0.57747 1 -0.51824 0 1 0
-0.6367 1 -0.51824 0 1 0
0.8866 0.4088 -0.030865 0.94044 -0.33645 0.048734
0.89764 0.40545 0.047417 0.85232 -0.30493 -0.42493
0.89252 0.407 -0.062175 0.94136 -0.23584 0.24128
0.90414 0.40348 -0.091669 0.83371 -0.20887 0.51118
0.6367 -0.9983 -0.78344 0 -0.99557 -0.094063
0.57747 -0.99746 -0.78971 0 -0.98771 -0.15632
0.60709 -0.99494 -0.80427 0 -0.9759 -0.21823
-0.78612 -0.77079 -0.99753 -0.095291 -0.095951 -0.99081
-0.75516 -0.80309 -0.9952 0 -0.21819 -0.97591
-0.75516 -0.77773 -0.99884 0 -0.094082 -0.99556
-1 -0.13326 -0.28133 -1 0 0
-1 -0.19249 -0.28133 -1 0 0
-1 -0.13326 -0.25172 -1 0 0
-1 -0.16288 -0.25172 -1 0 0
-1 -0.13326 -0.2221 -1 0 0
-1 -0.16288 -0.31095 -1 0 0
-1 -0.19249 -0.25172 -1 0 0
-0.25172 1 0.13326 0 1 0
-0.19249 1 0.13326 0 1 0
-0.28133 1 0.13326 0 1 0
0.37461 0.93605 0.47799 -0.029398 0.59794 -0.801
0.38208 0.95003 0.48751 -0.14549 0.58072 -0.801
0.40833 0.9325 0.46726 -0.31792 0.67212 -0.66871
0.41293 0.94767 0.47799 -0.34665 0.57842 -0.73842
0.39895 0.95515 0.48751 -0.20166 0.56368 -0.801
0.36454 0.94831 0.48751 0.025382 0.51633 -0.85601
0.35448 0.93605 0.47799 0.087817 0.59219 -0.801
0.34701 0.95003 0.48751 0.12562 0.50146 -0.85601
0.37202 0.96229 0.49573 -0.02113 0.42974 -0.9027
0.42966 0.95885 0.47799 -0.40202 0.4436 -0.801
0.3768 0.91373 0.45542 -0.039551 0.80438 -0.5928
0.33014 0.95515 0.48751 0.17415 0.48674 -0.85601
0.3424 0.96521 0.49573 0.10456 0.41736 -0.9027
0.4036 0.90946 0.44258 -0.28952 0.80924 -0.51118
0.42796 0.91955 0.44258 -0.41401 0.69079 -0.5928
1 -0.66631 0.34056 1 0 0
1 -0.66631 0.28133 1 0 0
1 -0.66631 0.37017 1 0 0
1 -0.66631 0.39979 1 0 0
1 -0.66631 0.4294 1 0 0
1 -0.66631 0.044421 1 0 0
1 -0.66631 0.45902 1 0 0
-0.25172 -0.39979 -1 0 0 -1
0.28133 0.37017 -1 0 0 -1
-0.2221 -0.39979 -1 0 0 -1
-0.16288 -0.19249 -1 0 0 -1
0.19249 0.19249 -1 0 0 -1
0.19249 0.39979 -1 0 0 -1
0.19249 0.2221 -1 0 0 -1
0.2221 0.39979 -1 0 0 -1
-0.19249 -0.28133 -1 0 0 -1
0.93911 -0.85623 -0.88122 0.72829 -0.43277 -0.53132
0.93289 -0.83003 -0.90599 0.70212 -0.33082 -0.63055
0.9211 -0.84239 -0.91264 0.70212 -0.33082 -0.63055
-0.89875 0.94786 -0.80198 -0.56398 0.81015 -0.15996
-0.36948 0.45195 0.89285 0.029405 -0.59794 0.801
-0.40388 0.4451 0.89285 0.20166 -0.56368 0.801
0.99844 0.78194 0.4294 0.99555 0.094277 0
0.99599 0.79895 0.4294 0.98771 0.15632 0
0.99481 0.80486 0.48863 0.97591 0.21819 0
0.99827 0.78374 0.37017 0.99556 0.094082 0
0.2221 0.044421 1 0 0 1
0.14463 0.05597 1 -0.93153 -0.33325 0.14559
0.19249 0.014807 1 0 0 1
0.19249 0.074035 1 0 0 1
0.2221 0.014807 1 0 0 1
0.14059 0.038436 0.96594 -0.91412 -0.22902 0.33458
0.16288 0.074035 1 0 0 1
0.16288 0.014807 1 -0.00001 0 1
0.99855 -0.78074 -0.72554 0.99556 -0.094072 0.00002
-0.60708 0.014807 1 0 0 1
-0.60708 -0.044421 1 0 0 1
-0.60708 0.044421 1 0 0 1
-0.60708 0.074035 1 0 0 1
-0.6367 -0.014807 1 0 0 1
-0.6367 0.014807 1 0 0 1
-0.57747 0.074035 1 0 0 1
0.25172 -0.19249 1 0 0 1
0.2221 -0.13326 1 0 0 1
0.19249 -0.13326 1 0 0 1
0.25172 -0.16288 1 0 0 1
0.96557 -0.88012 -0.57747 0.86075 -0.50902 0
0.97122 -0.87015 -0.60709 0.891 -0.454 0
0.98311 -0.84444 -0.54786 0.94089 -0.33873 0
1 -0.16288 0.51824 1 0 0
1 -0.10365 0.45902 1 0 0
1 -0.10365 0.48863 1 0 0
1 -0.13326 0.51824 1 0 0
1 -0.16288 0.48863 1 0 0
1 -0.13326 0.45902 1 0 0
1 -0.51824 -0.25172 1 0 0
0.51836 -1 -0.37017 0 -1 0
0.51403 -0.9862 -0.38191 -0.90289 -0.42709 0.048731
0.54786 -1 -0.37017 0 -1 0
0.54786 -1 -0.39979 0 -1 0
0.54786 -1 -0.34056 0 -1 0
0.51116 -0.98739 -0.35014 -0.89434 -0.42304 -0.14559
0.51158 -1 -0.33464 -0.91374 -0.3269 -0.24128
0.54786 -1 -0.31095 0 -1 0
0.54786 -1 -0.4294 0 -1 0
0.51824 -1 -0.31095 0 -1 0
0.044421 -1 0.39979 0 -1 0
0.99691 0.46776 0.46726 0.22715 -0.63493 -0.73842
0.25172 -0.84667 0.98221 0 -0.39704 0.9178
0.19249 -0.84667 0.98221 0 -0.39704 0.9178
0.28133 -0.84217 0.98393 0 -0.33873 0.94089
0.28133 -0.86344 0.97464 0 -0.454 0.891
-0.78074 0.99855 0.4294 -0.094259 0.99555 0
1 0.25172 -0.66631 1 0 0
1 0.31095 -0.66631 1 0 0
1 0.34056 -0.66631 1 0 0
1 0.13326 -0.66631 1 0 0
1 0.10365 -0.66631 1 0 0
-1 0.51824 0.57747 -1 0 0
-1 0.45902 0.54786 -1 0 0
-1 0.48863 0.60708 -1 0 0
-1 0.51824 0.60708 -1 0 0
-0.54786 1 0.6367 0 1 0
-0.60708 1 0.6367 0 1 0
-0.25172 1 0.044421 0 1 0
-0.19249 1 0.044421 0 1 0
-0.28133 1 0.044421 0 1 0
-0.31095 1 0.044421 0 1 0
0.9086 -0.94585 -0.54786 0.61289 -0.79017 0
0.91003 -0.94474 -0.51824 0.61289 -0.79017 0
0.93683 -0.91914 -0.57747 0.75009 -0.66134 0
0.92073 -0.93543 -0.57747 0.66124 -0.75017 0
0.94751 -0.90646 -0.54786 0.79017 -0.61289 0
-0.82068 -0.16288 -0.99096 -0.27905 0 -0.96028
-0.81691 -0.28133 -0.99205 -0.27905 0 -0.96028
-0.81487 -0.2221 -0.99257 -0.21819 0 -0.97591
-0.80869 -0.19249 -0.99395 -0.218 0 -0.97595
-0.81691 -0.074035 -0.99205 -0.27905 0 -0.96028
-0.80869 -0.31095 -0.99395 -0.21819 0 -0.97591
-0.78314 0.99832 -0.074035 -0.094259 0.99555 0
-0.79716 0.99628 -0.13326 -0.15654 0.98767 0
-0.79716 0.99628 -0.16288 -0.15632 0.98771 0
-0.78404 0.99824 -0.19249 -0.094082 0.99556 0
-1 0.51824 -0.60708 -1 0 0
-1 0.57747 -0.60708 -1 0 0
-1 0.48863 -0.60708 -1 0 0
-1 0.54786 -0.6367 -1 0 0
-1 0.51824 -0.57747 -1 0 0
-0.76751 -0.014807 -0.99961 -0.03142 0 -0.99951
-0.75516 0.044421 -1 0 0 -1
-0.75606 -0.044421 -0.99997 -0.031426 0 -0.99951
-0.96956 0.87337 -0.4294 -0.86079 0.50896 0
-0.96971 0.87311 -0.48863 -0.86075 0.50902 0
-0.96171 0.8866 -0.45902 -0.82709 0.56207 0
-0.959 0.89059 -0.4294 -0.82709 0.56207 0
-0.96235 0.88557 -0.39979 -0.8607 0.50911 0
-0.97245 0.86774 -0.37017 -0.89104 0.45392 0
-0.13326 0.75787 0.99992 0 0.031426 0.99951
-0.074035 0.75606 0.99997 0 0.031426 0.99951
-0.19249 0.75726 0.99993 0 0.031426 0.99951
-0.2221 0.75546 0.99999 0 0.031426 0.99951
-0.044421 0.75516 1 0 0.031426 0.99951
-0.16288 0.77323 0.99926 0 0.094063 0.99557
-0.10365 0.77714 0.99889 0 0.094082 0.99556
-0.13326 0.77804 0.99881 0 0.094082 0.99556
0.77593 0.31095 0.99901 0.094063 0 0.99557
0.76902 0.37017 0.99956 0.031229 0 0.99951
0.79746 0.31095 0.99623 0.15632 0 0.98771
0.80014 0.37017 0.99581 0.15632 0 0.98771
0.76872 0.28133 0.99957 0.03142 0 0.99951
0.75516 0.34056 1 0.031426 0 0.99951
-0.37017 -0.97026 -0.87204 0 -0.891 -0.454
-0.31095 -0.96726 -0.87726 0 -0.86075 -0.50902
-0.39979 -0.96757 -0.87674 0 -0.86079 -0.50896
-0.13326 -0.96833 -0.87545 0 -0.86075 -0.50902
-0.16288 -0.96649 -0.87856 0 -0.8607 -0.50911
-0.2221 -0.97149 -0.86962 0 -0.891 -0.454
-0.25172 -0.96235 -0.88557 0 -0.8607 -0.50911
-0.34056 -0.96053 -0.88835 0 -0.82709 -0.56207
-0.19249 -0.95934 -0.89009 0 -0.82709 -0.56207
-0.10365 1 -0.34056 0 1 0
-0.10365 1 -0.39979 0 1 0
-0.074035 1 -0.37017 0 1 0
-0.13326 1 -0.37017 0 1 0
-0.074035 1 -0.34056 0 1 0
-0.13326 1 -0.39979 0 1 0
-1 -0.014034 -0.17088 -1 0 0
-1 0.014807 -0.19249 -1 0 0
-1 -0.044421 -0.19249 -1 0 0
-1 -0.014807 -0.2221 -1 0 0
-1 0.004117 -0.17088 -0.25359 -0.039178 0.96652
-1 0.014807 -0.2221 -1 0 0
1 0.69593 0.48863 1 0 0
1 0.69593 0.54786 1 0 0
1 0.69593 0.45902 1 0 0
-0.60708 0.57747 -1 0 0 -1
-0.57747 0.54786 -1 0 0 -1
-0.6367 0.54786 -1 0 0 -1
-0.57747 -1 0.4294 0 -1 0
-0.57747 -1 0.48863 0 -1 0
-0.54786 -1 0.45902 0 -1 0
-0.60708 -1 0.45902 0 -1 0
-0.54786 -1 0.4294 0 -1 0
-0.60708 -1 0.48863 0 -1 0
-0.60708 -1 0.4294 0 -1 0
-0.54786 -1 0.48863 0 -1 0
0.99505 0.80158 -0.77085 0.98255 0.15892 -0.096688
0.39979 -0.57747 1 0 0 1
0.4294 -0.60708 1 0 0 1
0.45902 -0.57747 1 0 0 1
0.4294 -0.54786 1 0 0 1
0.45902 0.89234 -0.95782 0 0.56207 -0.82709
0.4294 0.89683 -0.95476 0 0.5622 -0.827
0.45902 0.92468 -0.93172 0 0.70711 -0.70711
0.39979 0.90813 -0.94621 0 0.61289 -0.79017
0.48863 0.92005 -0.93603 0 0.66124 -0.75017
0.39979 0.89383 -0.9568 0 0.56207 -0.82709
0.92276 0.57747 0.93364 0.66124 0 0.75017
0.9488 0.57747 0.90479 0.79017 0 0.61289
0.92683 -0.25811 0.001059 0.73308 -0.66437 -0.1456
0.97343 -0.24612 0.061863 0.44183 -0.73721 -0.51118
-0.60708 1 0.69593 0 1 0
-0.66631 1 0.69593 0 1 0
-0.10365 1 -0.6367 0 1 0
-0.074035 1 -0.6367 0 1 0
-0.044421 1 -0.6367 0 1 0
0.48863 1 -0.6367 0 1 0
-0.99323 -0.81192 -0.54786 -0.97591 -0.21819 0
0.90598 -0.94788 0.6367 0.61289 -0.79017 0
0.89209 -0.95799 0.60708 0.56207 -0.82709 0
0.87545 -0.96833 0.66631 0.50902 -0.86075 0
0.96649 0.87856 -0.75516 0.86075 0.50902 0.000016
-0.57747 0.98137 -0.84861 0 0.9178 -0.39704
-0.51824 0.98403 -0.84188 0 0.94089 -0.33873
-0.54786 0.97163 -0.86935 0 0.891 -0.454
-0.54786 0.98886 -0.82792 0 0.96028 -0.27905
-0.8456 0.95725 -0.85969 -0.34273 0.8491 -0.40196
-0.91733 -0.93843 0.31095 -0.66134 -0.75009 0
-0.90455 -0.94899 0.25172 -0.61289 -0.79017 0
-0.90122 -0.95157 0.31095 -0.61289 -0.79017 0
-0.90384 -0.94954 0.2221 -0.61289 -0.79017 0
-0.89458 -0.95629 0.28133 -0.5622 -0.827 0
0.4294 0.99976 -0.76269 0 0.99951 -0.03142
0.48863 0.99967 -0.76571 0 0.99951 -0.03142
1 0.51824 -0.51824 1 0 0
1 0.54786 -0.57747 1 0 0
1 0.54786 -0.54786 1 0 0
1 0.48863 -0.54786 1 0 0
1 0.48863 -0.51824 1 0 0
-0.96588 0.8796 0.34056 -0.8607 0.50911 0
-0.97601 0.86075 -0.28133 -0.89096 0.45408 0
-0.95815 0.89184 0.39979 -0.82709 0.56207 0
-0.96818 0.87571 0.28133 -0.86079 0.50896 0
-0.97149 0.86962 0.4294 -0.891 0.454 0
-0.9625 0.88531 0.4294 -0.86075 0.50902 0
-0.9773 0.85802 0.25172 -0.9178 0.39704 0
-0.96588 0.8796 -0.28133 -0.8607 0.50911 0
-0.95849 0.89134 0.31095 -0.82709 0.56207 0
-0.96265 0.88505 -0.37017 -0.8607 0.50911 0
-0.9767 0.8594 -0.25172 -0.891 0.454 0
-0.96154 0.88685 -0.34056 -0.82706 0.56211 0
-0.96772 0.87648 0.25172 -0.86075 0.50902 0
0.37017 0.044421 1 0 0 1
0.37017 -0.014807 1 0 0 1
-0.34945 -0.94744 0.47799 -0.087812 -0.59219 -0.801
-0.40269 -0.93863 0.46726 0.22715 -0.63493 -0.73843
-0.3302 -0.95328 0.47799 -0.28835 -0.60958 -0.73842
-0.40388 -0.96507 0.48751 0.25597 -0.54119 -0.801
-0.78584 0.25172 -0.99807 -0.094259 0 -0.99555
-0.76359 0.25172 -0.99973 -0.03142 0 -0.99951
-0.76902 0.34056 -0.99956 -0.031229 0 -0.99951
-0.7912 0.31095 -0.99722 -0.15651 0 -0.98768
-0.78494 0.2221 -0.99815 -0.094082 0 -0.99556
-0.75516 0.31095 -1 -0.031426 0 -0.99951
0.37017 0.6367 -1 0 0 -1
0.4294 0.6367 -1 0 0 -1
0.34056 0.6367 -1 0 0 -1
0.19249 0.6367 -1 0 0 -1
0.16288 0.6367 -1 0 0 -1
0.31095 0.6367 -1 0 0 -1
0.2221 0.6367 -1 0 0 -1
0.28133 0.6367 -1 0 0 -1
0.25172 0.6367 -1 0 0 -1
0.13326 0.6367 -1 0 0 -1
0.45902 0.6367 -1 0 0 -1
0.10365 0.6367 -1 0 0 -1
0.48863 0.6367 -1 0 0 -1
0.90408 0.014807 -0.94936 0.61289 0 -0.79017
0.90074 -0.014807 -0.95195 0.61289 0 -0.79017
0.90908 0.074035 -0.94547 0.61289 0 -0.79017
0.88959 0.014807 -0.95968 0.56207 0 -0.82709
0.89333 -0.044421 -0.95714 0.56207 0 -0.82709
0.92163 0.044421 -0.93464 0.66145 0 -0.74999
0.88609 0.044421 -0.96204 0.50888 0 -0.86084
0.40949 -0.89995 -0.42919 -0.23584 -0.94136 0.24128
0.3804 -0.88709 -0.38191 -0.14651 -0.98801 0.048733
0.36454 -0.88709 -0.39788 -0.049048 -0.99761 0.048734
0.41129 -0.89403 -0.39788 -0.33645 -0.94044 0.048739
0.34876 -0.88787 -0.36595 0.14513 -0.97864 -0.14559
0.42527 -0.9015 -0.41368 -0.3269 -0.91374 0.24128
0.39371 -0.9015 -0.44423 -0.13279 -0.89543 0.42493
0.36454 -0.88942 -0.35014 -0.048582 -0.98815 -0.1456
0.33358 -0.89247 -0.35014 0.14236 -0.95996 -0.24128
0.34899 -0.89019 -0.41368 0.14235 -0.95996 0.24128
0.43753 -0.91156 -0.42919 -0.49888 -0.83241 0.24128
0.34937 -0.89403 -0.33464 0.046278 -0.94123 -0.33458
0.3196 -0.89995 -0.33464 0.3269 -0.91374 -0.24128
0.36454 -0.89863 -0.44423 0.046282 -0.94123 0.33458
0.41915 -0.91628 -0.45868 -0.28952 -0.80924 0.51119
0.83848 0.69593 -0.98526 0.33873 0 -0.94089
0.81894 0.75516 -0.99147 0.28097 0.032411 -0.95917
0.66631 0.81222 0.99316 0 0.21804 0.97594
0.72554 0.79299 0.99694 0 0.15632 0.98771
-0.72554 0.54786 -1 0 0 -1
-0.72554 0.60708 -1 0 0 -1
0.54786 -0.93504 0.92118 0 -0.75017 0.66124
0.60708 -0.93321 0.92319 0 -0.70711 0.70711
0.57747 -0.94751 0.90646 0 -0.79017 0.61289
0.57747 -0.92118 0.93504 0 -0.66145 0.74999
1 0.19249 0.10365 1 0 0
1 0.19249 0.16288 1 0 0
-0.81575 0.99237 -0.28133 -0.21804 0.97594 0
-0.83451 0.98669 -0.28133 -0.33873 0.94089 0
-0.82097 0.99088 -0.25172 -0.27905 0.96028 0
-0.80898 0.99389 -0.37017 -0.21819 0.97591 0
-0.84075 0.98444 -0.31095 -0.33873 0.94089 0
-0.79984 0.99585 -0.31095 -0.15632 0.98771 0
0.10365 -1 -0.4294 0 -1 0
0.16288 -1 -0.4294 0 -1 0
0.25172 -0.044421 -1 0 0 -1
0.16288 -0.074035 -1 0 0 -1
-0.95866 0.89109 0.75516 -0.82709 0.56207 0
-1 -0.69593 -0.57747 -1 0 0
-1 -0.69593 -0.6367 -1 0 0
-0.54786 -0.25172 1 0 0 1
-0.54786 -0.19249 1 0 0 1
-0.57747 -0.25172 1 0 0 1
-0.54786 0.45902 1 0 0 1
-0.77834 0.99878 -0.6367 -0.094063 0.99557 0
-0.76269 0.99976 -0.69593 -0.03142 0.99951 0
-0.75757 0.99992 -0.6367 -0.031426 0.99951 0
1 -0.39979 0.66631 1 0 0
1 -0.45902 0.66631 1 0 0
1 0.37017 0.66631 1 0 0
1 0.34056 0.66631 1 0 0
1 -0.37017 0.66631 1 0 0
1 -0.044421 0.66631 1 0 0
1 0.31095 0.66631 1 0 0
1 0.39979 0.66631 1 0 0
1 -0.074035 0.66631 1 0 0
1 -0.014807 0.66631 1 0 0
1 0.28133 0.66631 1 0 0
0.72554 1 0.25172 0 1 0
0.72554 1 0.31095 0 1 0
0.72554 1 0.2221 0 1 0
0.72554 1 0.19249 0 1 0
0.72554 1 0.16288 0 1 0
0.72554 1 0.13326 0 1 0
0.72554 1 0.10365 0 1 0
0.72554 1 0.074035 0 1 0
0.72554 1 0.044421 0 1 0
0.57747 -0.82763 -0.98894 0 -0.27905 -0.96028
0.51824 -0.80545 -0.99468 0 -0.21819 -0.97591
0.57747 -0.80516 -0.99474 0 -0.21819 -0.97591
1 0.51824 0.6367 1 0 0
1 0.57747 0.6367 1 0 0
1 0.54786 0.60708 1 0 0
-0.48863 -0.25172 1 0 0 1
-0.48863 -0.19249 1 0 0 1
-0.28133 -0.83167 -0.98771 0 -0.33873 -0.94089
-0.34056 -0.83848 -0.98526 0 -0.33873 -0.94089
-0.31095 -0.84302 -0.98362 0 -0.3389 -0.94082
-0.2221 -0.84217 -0.98393 0 -0.33873 -0.94089
-0.16288 -0.84302 -0.98362 0 -0.3389 -0.94082
-0.31095 -0.82155 -0.99071 0 -0.27905 -0.96028
-0.10365 -0.82415 -0.98995 0 -0.27887 -0.96033
-0.074035 -0.82821 -0.98877 0 -0.27882 -0.96034
-0.99514 -0.66631 0.80339 -0.97595 0 0.218
-1 0.16288 -0.31095 -1 0 0
-1 0.074035 -0.37017 -1 0 0
-1 0.10365 -0.37017 -1 0 0
-1 -0.10365 -0.2221 -1 0 0
-1 -0.10365 -0.16288 -1 0 0
-1 -0.074035 -0.19249 -1 0 0
-1 -0.13326 -0.19249 -1 0 0
-1 -0.074035 -0.2221 -1 0 0
-1 0.19249 0.28133 -1 0 0
-1 0.25172 0.2221 -1 0 0
-1 0.2221 0.2221 -1 0 0
-1 0.16288 0.31095 -1 0 0
-1 0.28133 0.19249 -1 0 0
-1 0.19249 0.25172 -1 0 0
-1 0.2221 0.28133 -1 0 0
-1 0.25172 0.25172 -1 0 0
-1 0.25172 0.19249 -1 0 0
-0.99661 0.79508 0.014807 -0.98768 0.15651 0
-0.99547 0.80192 -0.16288 -0.9759 0.21823 0
-0.99533 0.80251 -0.13326 -0.9759 0.21823 0
-0.9956 0.80133 0.044421 -0.9759 0.21823 0
-0.99708 0.7921 -0.19249 -0.98768 0.15651 0
-0.99389 0.80898 -0.10365 -0.97591 0.21819 0
-0.99402 0.80839 -0.014807 -0.97595 0.218 0
-0.99847 0.78164 -0.074035 -0.99557 0.094063 0
-0.99855 0.78074 0.044421 -0.99557 0.094063 0
0.99998 -0.75576 0.51824 0.99951 -0.03142 0
0.99986 -0.75968 0.4294 0.99951 -0.03142 0
0.99915 -0.77443 0.51824 0.99556 -0.094082 0
-0.43304 0.97464 0.48751 0.44359 0.40202 -0.801
-0.40543 0.97093 0.49573 0.22118 0.36906 -0.9027
-0.4346 0.95885 0.47799 0.40203 0.44359 -0.801
-0.074035 -0.72554 -1 0 0 -1
-0.10365 -0.72554 -1 0 0 -1
-0.19249 1 -0.66631 0 1 0
-0.13326 1 -0.66631 0 1 0
-0.2221 1 -0.66631 0 1 0
-0.10365 1 -0.66631 0 1 0
-0.25172 1 -0.66631 0 1 0
-0.074035 1 -0.66631 0 1 0
-0.28133 1 -0.66631 0 1 0
0.45902 1 -0.6367 0 1 0
0.39979 -0.66631 1 0 0 1
0.45902 -0.66631 1 0 0 1
0.4294 -0.6367 1 0 0 1
0.13326 -0.90503 0.94862 0 -0.61289 0.79017
0.074035 -0.90145 0.95139 0 -0.61289 0.79017
0.10365 -0.91123 0.94381 0 -0.66124 0.75017
0.044421 -0.8796 0.96588 0 -0.50902 0.86075
0.2221 -1 0.28133 0 -1 0
0.28133 -1 0.2221 0 -1 0
0.31095 -1 0.16288 0 -1 0
-0.31095 0.074035 -1 0 0 -1
-0.37017 0.044421 -1 0 0 -1
-0.28133 0.10365 -1 0 0 -1
-0.60708 -1 0.51824 0 -1 0
-0.60708 -1 0.57747 0 -1 0
-0.57747 -1 0.54786 0 -1 0
-0.6367 -1 0.54786 0 -1 0
-0.57747 -1 0.51824 0 -1 0
-1 -0.4294 0.19249 -1 0 0
-1 -0.4294 0.25172 -1 0 0
-1 -0.4294 0.16288 -1 0 0
0.66631 0.79418 0.99675 0 0.15651 0.98768
-0.76902 -0.99956 0.16288 -0.031229 -0.99951 0
-0.76359 -0.99973 0.2221 -0.031426 -0.99951 0
-0.78134 -0.99849 0.19249 -0.094259 -0.99555 0
-0.69593 0.39979 -1 0 0 -1
-0.69593 0.37017 -1 0 0 -1
0.85858 0.85841 0.9516 0.39843 0.39751 0.82658
0.88471 0.83079 0.94866 0.50772 0.28099 0.81441
-0.97588 0.25172 0.86102 -0.89096 0 0.45408
-0.97861 0.2221 0.85498 -0.91773 0 0.39721
-0.97766 0.16288 0.85719 -0.91773 0 0.39721
-0.97993 0.19249 0.85193 -0.91773 0 0.39721
-0.96373 -0.2221 0.88323 -0.86075 0 0.50902
-0.95951 -0.19249 0.88984 -0.82706 0 0.56211
-0.97177 -0.16288 0.86908 -0.891 0 0.454
-0.96526 -0.25172 0.88064 -0.8607 0 0.50911
-0.97837 0.13326 0.85553 -0.91773 0 0.39721
-0.96002 0.16288 0.88909 -0.82709 0 0.56207
-0.973 -0.2221 0.86666 -0.89104 0 0.45392
1 0.51824 -0.13326 1 0 0
1 0.51824 -0.19249 1 0 0
1 0.51824 -0.10365 1 0 0
1 0.51824 0.044421 1 0 0
1 0.51824 0.074035 1 0 0
1 0.50695 -0.074035 1 0 0
0.99395 0.51614 0.001059 0.24273 -0.96887 -0.048737
0.99395 0.51614 -0.030865 0.24273 -0.96887 0.048737
1 0.51824 0.10365 1 0 0
1 -0.54786 0.4294 1 0 0
1 -0.54786 0.39979 1 0 0
1 -0.51824 0.45902 1 0 0
1 -0.54786 0.37017 1 0 0
1 -0.51824 0.48863 1 0 0
1 -0.5157 0.41443 1 0 0
1 0.48863 -0.72554 1 0 0
1 0.044421 -0.19249 1 0 0
1 0.044421 -0.25172 1 0 0
1 0.044421 -0.16288 1 0 0
1 0.044421 -0.13326 1 0 0
1 0.044421 -0.10365 1 0 0
1 0.044421 -0.074035 1 0 0
1 0.044421 -0.044421 1 0 0
1 0.044421 -0.014807 1 0 0
1 0.044421 0.014807 1 0 0
1 0.044421 0.044421 1 0 0
1 0.044421 0.074035 1 0 0
1 0.044421 0.10365 1 0 0
1 0.044421 0.13326 1 0 0
1 0.044421 0.16288 1 0 0
1 0.014807 0.19249 1 0 0
1 0.044421 0.19249 1 0 0
-0.66631 1 0.60708 0 1 0
-0.66631 1 0.66631 0 1 0
-0.81745 0.87395 -0.95999 -0.22424 0.45989 -0.85919
-0.84668 0.84637 -0.96313 -0.34414 0.40106 -0.84895
-0.84501 0.87174 -0.95082 -0.39004 0.49603 -0.77577
-0.81815 0.84733 -0.97307 -0.22542 0.40501 -0.88609
-0.85858 0.85841 -0.9516 -0.39843 0.39751 -0.82658
0.72554 -0.45902 -1 0 0 -1
1 -0.31095 -0.69593 1 0 0
1 -0.37017 -0.69593 1 0 0
1 -0.28133 -0.69593 1 0 0
1 -0.39979 -0.69593 1 0 0
0.95057 0.78648 -0.89931 0.81981 0.095771 -0.56457
0.94973 0.75516 -0.9036 0.79017 -0.000014 -0.61289
0.014807 -0.98903 -0.82734 0 -0.96028 -0.27905
0.6367 -0.014807 1 0 0 1
0.6367 0.014807 1 0 0 1
0.6367 0.044421 1 0 0 1
0.66631 -0.014807 1 0 0 1
-0.31095 0.51824 -1 0 0 -1
-0.32564 0.50655 -1 -0.31744 -0.88729 -0.33458
-0.36948 0.50475 -0.9813 -0.044453 -0.90413 -0.42493
-0.31095 0.54786 -1 0 0 -1
-0.28133 0.51824 -1 0 0 -1
-0.28133 0.54786 -1 0 0 -1
-0.34056 0.54786 -1 0 0 -1
-0.25172 0.54786 -1 0 0 -1
-0.41287 0.5051 -0.99574 0.30493 -0.85232 -0.42493
-0.87577 -0.88675 0.92274 -0.50743 -0.55006 0.66328
-0.84236 -0.92121 0.91254 -0.37956 -0.65437 0.65402
-0.82978 -0.91557 0.92441 -0.27715 -0.64096 0.7158
-0.84413 -0.88311 0.94399 -0.39004 -0.49603 0.77577
1 0.21833 0.28979 0.21999 0.87809 0.42492
0.94142 0.13326 -0.91394 0.75017 0 -0.66124
0.94954 0.16288 -0.90384 0.79017 0 -0.61289
0.89408 0.42278 -0.046673 0.91374 -0.3269 0.24128
0.89408 0.42278 0.016867 0.91374 -0.3269 -0.24128
0.99895 0.39979 -0.77653 0.99556 0 -0.094082
0.9952 -0.37017 -0.80309 0.9759 0 -0.21823
0.99675 0.39979 -0.79418 0.98768 0 -0.15651
0.99395 -0.39979 -0.80869 0.97591 0 -0.21819
0.99869 -0.34056 -0.77924 0.99557 0 -0.094063
0.94141 0.78653 0.91096 0.77504 0.15929 0.61151
0.91542 0.82974 0.92457 0.66719 0.33015 0.66773
0.94466 0.81667 0.89747 0.7504 0.2784 0.59949
0.90795 0.81623 0.93646 0.60578 0.21977 0.76468
-0.72554 0.98495 -0.83933 0 0.94089 -0.33873
-0.69593 0.97204 -0.86854 0 0.891 -0.454
-0.16288 1 -0.69593 0 1 0
-0.2221 1 -0.69593 0 1 0
-0.13326 1 -0.69593 0 1 0
-0.25172 1 -0.69593 0 1 0
-0.10365 1 -0.69593 0 1 0
-0.074035 1 -0.69593 0 1 0
-0.28133 1 -0.69593 0 1 0
0.20751 1 -0.38191 0 1 0
-0.044421 -0.31095 -1 0 0 -1
-0.044421 -0.37017 -1 0 0 -1
-0.044421 -0.28133 -1 0 0 -1
-0.044421 -0.39979 -1 0 0 -1
-0.044421 -0.25172 -1 0 0 -1
-0.31245 0.4474 -0.93218 -0.40173 -0.54162 -0.73842
-0.31245 0.43154 -0.92266 -0.35665 -0.48084 -0.801
-0.3271 0.44133 -0.92266 -0.26574 -0.44342 -0.85601
-0.26548 0.4474 -0.96759 -0.63685 -0.57716 -0.51118
-0.3302 0.45689 -0.93218 -0.28835 -0.60958 -0.73842
-0.29013 0.42717 -0.93218 -0.48083 -0.35664 -0.801
-0.3271 0.42547 -0.91444 -0.26574 -0.44342 -0.85601
-0.34338 0.44808 -0.92266 -0.12564 -0.50146 -0.85601
-0.25392 0.45689 -0.99574 -0.69828 -0.63282 -0.33458
-0.31052 0.41044 -0.91444 -0.34559 -0.25632 -0.9027
-0.31052 0.47236 -0.95475 -0.41401 -0.69079 -0.5928
0.99736 -0.79031 0.54786 0.98771 -0.15632 0
-0.99514 -0.75516 -0.80339 -0.97593 -0.000007 -0.21809
-0.9968 -0.72554 -0.79388 -0.98768 0 -0.15651
-1 -0.10365 0.2221 -1 0 0
-1 -0.10365 0.16288 -1 0 0
-1 -0.074035 0.19249 -1 0 0
-1 -0.074035 0.2221 -1 0 0
-1 -0.13326 0.16288 -1 0 0
-1 -0.10365 0.25172 -1 0 0
0.99656 0.79537 -0.57747 0.98771 0.15632 0
0.99797 0.78644 -0.60709 0.98768 0.15651 0
1 0.75516 -0.57747 1 0 0
1 0.6367 0.37017 1 0 0
1 0.6367 0.34056 1 0 0
1 0.6367 0.31095 1 0 0
1 0.60708 0.31095 1 0 0
1 0.66631 0.4294 1 0 0
-1 0.66631 -0.48863 -1 0 0
-1 0.66631 -0.54786 -1 0 0
-1 0.66631 -0.45902 -1 0 0
-0.45902 1 -0.72554 0 1 0
-0.51824 1 -0.72554 0 1 0
0.86182 -0.044421 0.97546 0.454 0 0.891
0.85304 -0.074035 0.97945 0.39721 0 0.91773
0.34056 0.014807 1 0 0 1
0.2221 0.10365 1 0 0 1
0.28133 0.10365 1 0 0 1
0.25172 0.13326 1 0 0 1
0.25172 0.074035 1 0 0 1
0.2221 0.13326 1 0 0 1
0.28133 0.13326 1 0 0 1
0.19249 0.10365 1 0 0 1
0.48863 -1 0.014807 0 -1 0
0.51824 -1 -0.074035 0 -1 0
0.48863 -1 0.044421 0 -1 0
0.45902 -1 0.074035 0 -1 0
0.54786 -1 -0.16288 0 -1 0
0.54786 -1 -0.19249 0 -1 0
0.4294 -1 0.13326 0 -1 0
0.45902 -1 0.10365 0 -1 0
-0.3271 0.95892 0.2167 -0.26575 0.44342 0.85601
-0.34338 0.95218 0.2167 -0.14549 0.58072 0.801
-0.31095 1 0.19249 0 1 0
-0.30591 0.97464 0.2167 -0.4436 0.40202 0.801
-0.30436 0.95885 0.22623 -0.40202 0.44361 0.801
0.11011 0.10762 1 0 0 1
0.11309 0.089876 0.96594 -0.69827 -0.63283 0.33458
0.12628 0.081065 0.98098 -0.83241 -0.49888 0.24128
0.13326 0.10365 1 0 0 1
0.10365 0.13326 1 0 0 1
0.088061 0.10535 0.95149 -0.51201 -0.69032 0.51118
0.11618 0.074321 0.95149 -0.72706 -0.53927 0.42493
0.13559 0.074035 1 0 0 1
0.10153 0.080391 0.93778 -0.69032 -0.51201 0.51118
0.12937 0.06551 0.96594 -0.8183 -0.38706 0.42492
0.13326 0.13326 1 0 0 1
0.80309 -0.37017 0.9952 0.21819 0 0.97591
0.80898 -0.31095 0.99389 0.21819 0 0.97591
0.77714 -0.34056 0.99889 0.094082 0 0.99556
0.79716 -0.39979 0.99628 0.15654 0 0.98767
0.81222 -0.28133 0.99316 0.21804 0 0.97594
0.82271 -0.37017 0.99037 0.27887 0 0.96033
0.77383 -0.37017 0.9992 0.094063 0 0.99557
0.82068 -0.39979 0.99096 0.27905 0 0.96028
0.014807 0.16288 1 0 0 1
0.025373 0.135 0.95149 -0.21999 -0.87809 0.42493
0.014807 0.19249 1 0 0 1
-0.60708 -1 -0.54786 0 -1 0
-0.57747 -1 -0.57747 0 -1 0
-0.57747 -1 -0.60708 0 -1 0
-0.45902 0.90884 -0.94566 0 0.61301 -0.79008
-0.48863 0.93023 -0.92617 0 0.70711 -0.70711
-0.45902 0.89383 -0.9568 0 0.56207 -0.82709
-0.51824 0.89583 -0.95544 0 0.5622 -0.827
-0.45902 0.87934 -0.96603 0 0.50902 -0.86075
-0.51824 0.87441 -0.96895 0 0.50902 -0.86075
0.83649 -0.28133 -0.98597 0.33873 0 -0.94089
0.82879 -0.2221 -0.98861 0.27905 0 -0.96028
0.80574 -0.28133 -0.99461 0.21819 0 -0.97591
0.81865 -0.19249 -0.99155 0.27905 0 -0.96028
0.79716 -0.25172 -0.99628 0.15654 0 -0.98767
0.13326 0.78494 -0.99815 0 0.094259 -0.99555
0.16288 0.78344 -0.9983 0 0.094259 -0.99555
0.2221 0.8134 -0.9929 0 0.21804 -0.97594
0.2221 0.79597 -0.99647 0 0.15632 -0.98771
0.25172 0.81691 -0.99205 0 0.27905 -0.96028
0.16288 0.80574 -0.99461 0 0.21819 -0.97591
0.19249 0.78134 -0.99849 0 0.094082 -0.99556
0.25172 0.7912 -0.99722 0 0.15632 -0.98771
0.28133 0.79835 -0.99609 0 0.15632 -0.98771
-1 0.51824 -0.66631 -1 0 0
-1 0.54786 -0.66631 -1 0 0
-1 -0.69593 -0.51824 -1 0 0
0.48863 -1 0.54786 0 -1 0
0.51824 -1 0.51824 0 -1 0
0.54786 -1 0.54786 0 -1 0
0.54786 -1 0.51824 0 -1 0
0.51824 -1 0.57747 0 -1 0
0.45902 -1 0.54786 0 -1 0
0.48863 -1 0.57747 0 -1 0
0.51824 -1 0.48863 0 -1 0
0.54786 -1 0.57747 0 -1 0
0.45902 -1 0.57747 0 -1 0
0.044421 -0.98495 -0.83933 0 -0.94089 -0.33873
0.10365 -0.98029 -0.8511 0 -0.91777 -0.39711
-1 -0.48863 -0.60708 -1 0 0
-1 -0.54786 -0.60708 -1 0 0
-1 -0.51824 -0.57747 -1 0 0
-1 -0.48863 -0.57747 -1 0 0
-1 -0.57747 -0.60708 -1 0 0
-1 -0.54786 -0.57747 -1 0 0
0.69593 -0.37017 -1 0 0 -1
0.69593 -0.4294 -1 0 0 -1
0.69593 -0.34056 -1 0 0 -1
0.69593 -0.45902 -1 0 0 -1
-0.84245 0.60709 0.98383 -0.33873 0 0.94089
-0.82705 0.54786 0.98911 -0.27905 0 0.96028
0.79329 0.99689 -0.45902 0.15632 0.98771 0
0.78971 0.99746 -0.51824 0.15654 0.98767 0
0.8134 0.9929 -0.45902 0.21819 0.97591 0
0.77323 0.99926 -0.48863 0.094259 0.99555 0
0.81865 0.99155 -0.51824 0.279 0.96029 0
0.2221 -1 -0.6367 0 -1 0
0.28133 -1 -0.6367 0 -1 0
0.19249 -1 -0.6367 0 -1 0
0.31095 -1 -0.6367 0 -1 0
0.16288 -1 -0.6367 0 -1 0
0.13326 -1 -0.6367 0 -1 0
0.34056 -1 -0.6367 0 -1 0
0.19249 -1 -0.60708 0 -1 0
0.16288 -1 -0.60708 0 -1 0
0.2221 -1 -0.60708 0 -1 0
0.13326 -1 -0.60708 0 -1 0
0.25172 -1 -0.60708 0 -1 0
0.074035 -1 -0.6367 0 -1 0
-0.074035 -1 -0.6367 0 -1 0
0.28133 -1 -0.60708 0 -1 0
-0.044421 -1 -0.6367 0 -1 0
0.044421 -1 -0.6367 0 -1 0
-0.45902 -0.6367 1 0 0 1
-0.51824 -0.6367 1 0 0 1
-0.48863 -0.60708 1 0 0 1
0.39371 -0.51859 -0.99574 -0.13824 0.93217 -0.33458
0.34989 -0.52074 -0.99574 0.046279 0.94123 -0.33458
0.3367 -0.51193 -0.9813 0.12607 0.85018 -0.51118
0.4036 -0.50071 -0.96759 -0.28952 0.80924 -0.51118
0.35136 -0.50586 -0.96759 0.12607 0.85018 -0.51118
0.32115 -0.51502 -0.99574 0.31744 0.8873 -0.33457
0.82937 -0.31095 0.98844 0.27882 0 0.96034
0.85166 -0.28133 0.98005 0.39704 0 0.9178
0.82126 -0.25172 0.99079 0.27905 0 0.96028
0.83536 -0.34056 0.98638 0.33873 0 0.94089
0.83365 -0.2221 0.98699 0.33873 0 0.94089
0.85359 -0.34056 0.97921 0.39711 0 0.91777
0.85276 -0.25172 0.97957 0.39721 0 0.91773
0.8629 -0.31095 0.97492 0.454 0 0.891
0.81662 -0.2221 0.99214 0.27905 0 0.96028
0.85249 -0.37017 0.97969 0.39704 0 0.9178
0.8174 0.78689 -0.98982 0.22203 0.097094 -0.97019
0.85331 0.75516 -0.97933 0.39954 0.032272 -0.91615
-0.4294 -1 -0.074035 0 -1 0
1 0.044421 0.39979 1 0 0
1 0.044421 0.45902 1 0 0
1 0.044421 0.37017 1 0 0
1 0.044421 0.34056 1 0 0
1 0.074035 0.48863 1 0 0
-1 -0.57747 0.51824 -1 0 0
-1 -0.54786 0.48863 -1 0 0
-1 -0.54786 0.51824 -1 0 0
-1 -0.57747 0.54786 -1 0 0
-1 -0.54786 0.45902 -1 0 0
-1 -0.60708 0.48863 -1 0 0
-1 -0.60708 0.51824 -1 0 0
-1 -0.54786 0.54786 -1 0 0
0.90874 -0.46014 0.38388 0.83241 0.49888 -0.24128
0.89799 -0.44824 0.35211 0.9029 0.42708 0.048737
0.28133 -0.98919 -0.82676 0 -0.96028 -0.27905
0.25172 -0.99037 -0.82271 0 -0.96028 -0.27905
0.25172 -0.99623 -0.79746 0 -0.98771 -0.15632
0.31095 -0.99779 -0.78763 0 -0.98767 -0.15654
0.28133 -0.99746 -0.78971 0 -0.98771 -0.15632
0.34056 -0.98835 -0.82966 0 -0.96028 -0.27905
0.2221 -0.99004 -0.82386 0 -0.96033 -0.27887
-0.27958 0.36205 0.89285 -0.59794 0.029401 0.801
-0.31227 0.38575 0.8778 -0.40511 -0.14493 0.90271
0.33538 -0.22535 0.96594 0.13279 -0.89543 0.42493
-0.30606 0.40443 0.88464 -0.36906 -0.22118 0.9027
0.95253 0.34451 0.2167 0.58072 0.14549 0.801
0.90874 0.33581 0.26163 0.85018 0.12608 0.51118
0.93854 0.35199 0.22623 0.67353 0.033116 0.73842
0.34056 0.99993 -0.75726 0 0.99951 -0.031229
0.37017 0.99999 -0.75546 0 0.99951 -0.03142
0.54786 -0.85193 0.97993 0 -0.39721 0.91773
0.60708 -0.85221 0.97981 0 -0.39704 0.9178
0.92883 0.4368 -0.47239 0.64685 -0.47977 0.5928
0.28133 0.51824 -1 0 0 -1
0.34056 0.51824 -1 0 0 -1
0.31095 0.51824 -1 0 0 -1
0.2221 0.51824 -1 0 0 -1
0.37017 0.51824 -1 0 0 -1
0.19249 0.51824 -1 0 0 -1
0.16288 0.51824 -1 0 0 -1
0.13326 0.51824 -1 0 0 -1
0.2221 0.54786 -1 0 0 -1
0.25172 0.54786 -1 0 0 -1
0.34056 0.54786 -1 0 0 -1
0.28133 0.54786 -1 0 0 -1
0.31095 0.54786 -1 0 0 -1
-0.014807 -0.19249 1 0 0 1
-0.044421 -0.19249 1 0 0 1
-0.002466 -0.15445 0.96594 -0.046279 0.94123 0.33457
-0.03163 -0.15157 0.96594 0.22902 0.91412 0.33458
-0.047413 -0.15313 0.98098 0.22902 0.91412 0.33458
-1 -0.28133 -0.16288 -1 0 0
-1 -0.28133 -0.19249 -1 0 0
-1 -0.31095 -0.13326 -1 0 0
-1 -0.34056 -0.13326 -1 0 0
-0.044421 -1 0.25172 0 -1 0
-0.19249 1 -0.10365 0 1 0
-0.19249 1 -0.074035 0 1 0
-0.13326 1 -0.10365 0 1 0
-0.16288 1 -0.074035 0 1 0
-0.2221 1 -0.074035 0 1 0
-0.2221 1 -0.10365 0 1 0
-0.13326 1 -0.13326 0 1 0
-0.10365 1 -0.13326 0 1 0
-0.19249 1 -0.044421 0 1 0
1 -0.51824 -0.2221 1 0 0
1 -0.51824 -0.16288 1 0 0
0.2221 -1 -0.57747 0 -1 0
0.074035 -1 -0.51824 0 -1 0
0.10365 -1 -0.51824 0 -1 0
0.13326 -1 -0.51824 0 -1 0
-0.45902 1 -0.54786 0 1 0
-0.4294 1 -0.57747 0 1 0
-0.40876 0.99034 -0.53237 0.2028 0.27484 0.93986
-0.39979 1 -0.57747 0 1 0
-0.45902 1 -0.57747 0 1 0
0.014807 -1 -0.31095 0 -1 0
0.014807 -1 -0.34056 0 -1 0
0.074035 -1 -0.37017 0 -1 0
-0.014807 -1 -0.28133 0 -1 0
-0.014807 -1 -0.31095 0 -1 0
0.044421 -1 -0.31095 0 -1 0
0.074035 -1 -0.34056 0 -1 0
-0.044421 -1 -0.25172 0 -1 0
0.044421 -1 -0.37017 0 -1 0
-0.044421 -1 -0.28133 0 -1 0
0.014807 -1 -0.28133 0 -1 0
0.87177 0.9704 0.13326 0.454 0.891 0
0.8201 0.99113 0.2221 0.27905 0.96028 0
0.80368 0.99507 0.25172 0.218 0.97595 0
0.79806 0.99613 0.2221 0.15632 0.98771 0
0.80839 0.99402 0.28133 0.218 0.97595 0
0.97885 -0.85442 -0.16288 0.9178 -0.39704 0
0.98257 -0.84584 -0.19249 0.91777 -0.39711 0
0.97519 -0.86236 -0.25172 0.89096 -0.45408 0
0.98281 -0.84529 -0.2221 0.94089 -0.33873 0
0.98659 -0.83479 -0.16288 0.94089 -0.33873 0
0.97122 -0.87015 -0.19249 0.891 -0.454 0
0.96818 -0.87571 -0.31095 0.86079 -0.50896 0
0.973 -0.86666 -0.13326 0.89104 -0.45392 0
0.97108 -0.87042 -0.16288 0.891 -0.454 0
0.98221 -0.84667 -0.28133 0.91777 -0.39711 0
0.98434 -0.84103 -0.25172 0.94089 -0.33873 0
0.96618 -0.87908 -0.25172 0.8607 -0.50911 0
0.97766 -0.85719 -0.34056 0.91773 -0.39721 0
0.97546 -0.86182 -0.37017 0.891 -0.454 0
-0.4294 0.99004 0.82386 0 0.96028 0.27905
-0.4294 0.98454 0.84047 0 0.94089 0.33873
-0.39979 0.9779 0.85664 0 0.9178 0.39704
-0.39979 0.99362 0.81016 0 0.97591 0.21819
-0.88984 -0.95951 0.16288 -0.56207 -0.82709 0
0.13326 0.57747 1 0 0 1
0.16288 0.54786 1 0 0 1
0.13326 0.54786 1 0 0 1
0.13326 0.60708 1 0 0 1
0.19249 0.54786 1 0 0 1
0.10365 0.60708 1 0 0 1
0.77984 -0.72554 0.99864 0.094161 -0.000023 0.99556
-0.95621 -0.88683 0.80192 -0.81075 -0.56335 0.15912
-0.9441 -0.8831 0.84393 -0.76682 -0.54796 0.33427
0.92204 0.29863 -0.29144 0.72802 0.34436 -0.5928
0.074035 -1 0.4294 0 -1 0
0.19249 -1 0.37017 0 -1 0
-0.014807 -1 0.45902 0 -1 0
0.2221 -1 0.37017 0 -1 0
0.014807 -1 0.45902 0 -1 0
-0.47347 -0.45732 0.93778 0.63685 0.57716 0.51118
-0.47518 -0.41575 0.91311 0.60959 0.28834 0.73842
