ply
format ascii 1.0
comment VCGLIB generated
element vertex 759
property float x
property float y
property float z
property float nx
property float ny
property float nz
property uchar red
property uchar green
property uchar blue
property uchar alpha
element face 0
property list uchar int vertex_indices
end_header
1.61794 0.665821 0 0 0 -1 255 255 255 255
-2.21341 0.79141 0 0 0 -1 255 255 255 255
1.55078 -0.250656 0 0 0 -1 255 255 255 255
-0.961078 1.09941 0 0 0 -1 255 255 255 255
1.47498 -0.08492 0 0 0 -1 255 255 255 255
1.51191 -0.625323 0 0 0 -1 255 255 255 255
0.102244 -2.21269 0 0 0 -1 255 255 255 255
0.102244 2.21269 0 0 0 -1 255 255 255 255
2.10465 0.439833 0 0 0 -1 255 255 255 255
-2.21468 0.03858 0 0 0 -1 255 255 255 255
-0.532267 -1.35357 0 0 0 -1 255 255 255 255
-0.532267 1.35357 0 0 0 -1 255 255 255 255
-1.33782 -0.5707 0 0 0 -1 255 255 255 255
1.36224 -0.500476 0 0 0 -1 255 255 255 255
0.128746 -1.44882 0 0 0 -1 255 255 255 255
0.128746 1.44882 0 0 0 -1 255 255 255 255
-1.45189 0.087312 0 0 0 -1 255 255 255 255
1.7741 -0.801526 0 0 0 -1 255 255 255 255
2.28834 0.814825 0.937764 0.846348 0.301366 0.439173 255 255 255 255
2.28834 -0.814825 0.937764 0.846348 -0.301366 0.439173 255 255 255 255
2.33733 0.656144 0.940563 0.858748 0.241071 0.452147 255 255 255 255
2.33733 -0.656144 0.940563 0.858748 -0.241071 0.452147 255 255 255 255
0 2.42744 0.941042 0 0.890814 0.454367 255 255 255 255
0 -2.42744 0.941042 0 -0.890814 0.454367 255 255 255 255
-2.42633 -0.073343 0.941042 -0.890408 -0.026915 0.454367 255 255 255 255
-2.42633 0.073343 0.941042 -0.890408 0.026915 0.454367 255 255 255 255
0.146619 2.42301 0.941042 0.053806 0.889188 0.454367 255 255 255 255
-0.146619 2.42301 0.941042 -0.053806 0.889188 0.454367 255 255 255 255
-0.146619 -2.42301 0.941042 -0.053806 -0.889188 0.454367 255 255 255 255
0.146619 -2.42301 0.941042 0.053806 -0.889188 0.454367 255 255 255 255
-2.41747 0.219762 0.941042 -0.887156 0.080647 0.454367 255 255 255 255
-2.41747 -0.219762 0.941042 -0.887156 -0.080647 0.454367 255 255 255 255
0.292703 2.40973 0.941042 0.107415 0.884315 0.454367 255 255 255 255
-0.292703 2.40973 0.941042 -0.107415 0.884315 0.454367 255 255 255 255
-0.292703 -2.40973 0.941042 -0.107415 -0.884315 0.454367 255 255 255 255
0.292703 -2.40973 0.941042 0.107415 -0.884315 0.454367 255 255 255 255
-2.39978 0.365378 0.941042 -0.880665 0.134085 0.454367 255 255 255 255
-2.39978 -0.365378 0.941042 -0.880665 -0.134085 0.454367 255 255 255 255
0.437718 2.38765 0.941042 0.160633 0.876212 0.454367 255 255 255 255
-0.437718 2.38765 0.941042 -0.160633 0.876212 0.454367 255 255 255 255
-0.437718 -2.38765 0.941042 -0.160633 -0.876212 0.454367 255 255 255 255
0.437718 -2.38765 0.941042 0.160633 -0.876212 0.454367 255 255 255 255
-2.37333 0.509659 0.941042 -0.870959 0.187033 0.454367 255 255 255 255
-2.37333 -0.509659 0.941042 -0.870959 -0.187033 0.454367 255 255 255 255
0.581135 2.35685 0.941042 0.213263 0.86491 0.454367 255 255 255 255
-0.581135 2.35685 0.941042 -0.213263 0.86491 0.454367 255 255 255 255
-0.581135 -2.35685 0.941042 -0.213263 -0.86491 0.454367 255 255 255 255
0.581135 -2.35685 0.941042 0.213263 -0.86491 0.454367 255 255 255 255
-2.33822 0.65208 0.941042 -0.858072 0.239298 0.454367 255 255 255 255
-2.33822 -0.65208 0.941042 -0.858072 -0.239298 0.454367 255 255 255 255
0.72243 2.31745 0.941042 0.265115 0.85045 0.454367 255 255 255 255
-0.72243 2.31745 0.941042 -0.265115 0.85045 0.454367 255 255 255 255
-0.72243 -2.31745 0.941042 -0.265115 -0.85045 0.454367 255 255 255 255
0.72243 -2.31745 0.941042 0.265115 -0.85045 0.454367 255 255 255 255
-2.29456 0.79212 0.941042 -0.842051 0.29069 0.454367 255 255 255 255
-2.29456 -0.79212 0.941042 -0.842051 -0.29069 0.454367 255 255 255 255
0.861086 2.26958 0.941042 0.315999 0.832884 0.454367 255 255 255 255
-0.861086 2.26958 0.941042 -0.315999 0.832884 0.454367 255 255 255 255
-0.861086 -2.26958 0.941042 -0.315999 -0.832884 0.454367 255 255 255 255
0.861086 -2.26958 0.941042 0.315999 -0.832884 0.454367 255 255 255 255
-2.24253 0.929267 0.941042 -0.822956 0.34102 0.454367 255 255 255 255
-2.24253 -0.929267 0.941042 -0.822956 -0.34102 0.454367 255 255 255 255
0.996598 2.21343 0.941042 0.365729 0.812278 0.454365 255 255 255 255
-0.996598 2.21343 0.941042 -0.365729 0.812278 0.454365 255 255 255 255
-0.996598 -2.21343 0.941042 -0.365729 -0.812278 0.454365 255 255 255 255
0.996598 -2.21343 0.941042 0.365729 -0.812278 0.454365 255 255 255 255
-2.18231 1.06302 0.941042 -0.800857 0.390104 0.454365 255 255 255 255
-2.18231 -1.06302 0.941042 -0.800857 -0.390104 0.454365 255 255 255 255
1.12847 2.14919 0.941039 0.414125 0.78871 0.454354 255 255 255 255
-1.12847 2.14919 0.941039 -0.414125 0.78871 0.454354 255 255 255 255
-1.12847 -2.14919 0.941039 -0.414125 -0.78871 0.454354 255 255 255 255
1.12847 -2.14919 0.941039 0.414125 -0.78871 0.454354 255 255 255 255
-2.11412 1.19289 0.941039 -0.775837 0.437766 0.454354 255 255 255 255
-2.11412 -1.19289 0.941039 -0.775837 -0.437766 0.454354 255 255 255 255
1.2562 2.07713 0.941025 0.461016 0.76229 0.454289 255 255 255 255
-1.2562 2.07713 0.941025 -0.461016 0.76229 0.454289 255 255 255 255
-1.2562 -2.07713 0.941025 -0.461016 -0.76229 0.454289 255 255 255 255
1.2562 -2.07713 0.941025 0.461016 -0.76229 0.454289 255 255 255 255
-2.03823 1.31839 0.941025 -0.748013 0.483837 0.454289 255 255 255 255
-2.03823 -1.31839 0.941025 -0.748013 -0.483837 0.454289 255 255 255 255
1.37926 1.99758 0.940944 0.506279 0.733243 0.453911 255 255 255 255
-1.37926 1.99758 0.940944 -0.506279 0.733243 0.453911 255 255 255 255
-1.37926 -1.99758 0.940944 -0.506279 -0.733243 0.453911 255 255 255 255
1.37926 -1.99758 0.940944 0.506279 -0.733243 0.453911 255 255 255 255
-1.955 1.43899 0.940944 -0.717612 0.528202 0.453911 255 255 255 255
-1.955 -1.43899 0.940944 -0.717612 -0.528202 0.453911 255 255 255 255
1.49683 1.91138 0.940469 0.550071 0.702411 0.451709 255 255 255 255
-1.49683 1.91138 0.940469 -0.550071 0.702411 0.451709 255 255 255 255
-1.49683 -1.91138 0.940469 -0.550071 -0.702411 0.451709 255 255 255 255
1.49683 -1.91138 0.940469 0.550071 -0.702411 0.451709 255 255 255 255
-1.86529 1.55389 0.940469 -0.685472 0.57104 0.451709 255 255 255 255
-1.86529 -1.55389 0.940469 -0.685472 -0.57104 0.451709 255 255 255 255
1.6065 1.82202 0.937687 0.594274 0.674 0.43882 255 255 255 255
-1.6065 1.82202 0.937687 -0.594274 0.674 0.438819 255 255 255 255
-1.6065 -1.82202 0.937687 -0.594274 -0.674 0.438819 255 255 255 255
1.6065 -1.82202 0.937687 0.594274 -0.674 0.43882 255 255 255 255
-1.77269 1.66078 0.937687 -0.65575 0.614353 0.438819 255 255 255 255
-1.77269 -1.66078 0.937687 -0.65575 -0.614353 0.438819 255 255 255 255
1.69666 1.7485 0.921105 0.649165 0.669001 0.36197 255 255 255 255
-1.69666 1.7485 0.921105 -0.649166 0.669002 0.361968 255 255 255 255
-1.69666 -1.7485 0.921105 -0.649166 -0.669002 0.361968 255 255 255 255
1.69666 -1.7485 0.921105 0.649165 -0.669001 0.36197 255 255 255 255
1.77268 1.66078 0.937689 0.655746 0.614351 0.438828 255 255 255 255
1.77268 -1.66078 0.937689 0.655746 -0.614351 0.438828 255 255 255 255
1.86528 1.5539 0.940479 0.685451 0.571026 0.451758 255 255 255 255
1.86528 -1.5539 0.940479 0.685451 -0.571026 0.451758 255 255 255 255
1.95495 1.43901 0.941005 0.717485 0.52813 0.454196 255 255 255 255
1.95495 -1.43901 0.941005 0.717485 -0.52813 0.454196 255 255 255 255
2.03792 1.31852 0.941383 0.747246 0.483462 0.455947 255 255 255 255
2.03792 -1.31852 0.941383 0.747246 -0.483462 0.455947 255 255 255 255
2.11239 1.19375 0.943119 0.77121 0.435826 0.463994 255 255 255 255
2.11239 -1.19375 0.943119 0.77121 -0.435826 0.463994 255 255 255 255
2.39767 -0.369518 0.94386 0.873716 -0.134653 0.467428 255 255 255 255
2.39767 0.369518 0.94386 0.873716 0.134653 0.467428 255 255 255 255
2.1723 1.0685 0.952995 0.771983 0.379718 0.509761 255 255 255 255
2.1723 -1.0685 0.952995 0.771983 -0.379718 0.509761 255 255 255 255
2.22318 -1.01288 0.901047 0.876459 -0.399314 0.269012 255 255 255 255
2.22318 1.01288 0.901047 0.876459 0.399314 0.269012 255 255 255 255
2.26163 -0.925867 0.898263 0.894587 -0.366227 0.25611 255 255 255 255
2.26163 0.925867 0.898263 0.894587 0.366227 0.25611 255 255 255 255
2.22379 0.947233 0.959065 0.775586 0.330364 0.53789 255 255 255 255
2.22379 -0.947233 0.959065 0.775586 -0.330364 0.53789 255 255 255 255
2.40596 -0.243779 0.957239 0.844033 -0.08552 0.529428 255 255 255 255
2.40596 0.243779 0.957239 0.844033 0.08552 0.529428 255 255 255 255
2.42967 -0.118246 0.930316 0.913387 -0.044452 0.404658 255 255 255 255
2.42967 0.118246 0.930316 0.913387 0.044452 0.404658 255 255 255 255
2.37284 -0.511013 0.941434 0.869942 -0.18735 0.456181 255 255 255 255
2.37284 0.511013 0.941434 0.869942 0.18735 0.456181 255 255 255 255
1.1782 -0 1.29452 -0.78054 0 0.625106 255 255 255 255
0.988882 -0 1.05814 -0.78054 0 0.625106 255 255 255 255
0.82497 -0 0.853469 -0.78054 0 0.625106 255 255 255 255
0.659506 -0 0.646862 -0.78054 0 0.625106 255 255 255 255
0.48907 -0 0.434048 -0.78054 0 0.625106 255 255 255 255
0.308402 0.003633 0.208456 -0.78054 0 0.625106 255 255 255 255
1.25456 -0.148263 1.38987 -0.78054 0 0.625106 255 255 255 255
1.25456 0.148263 1.38987 -0.78054 0 0.625106 255 255 255 255
1.08693 0.118652 1.18057 -0.78054 0 0.625106 255 255 255 255
1.08693 -0.118652 1.18057 -0.78054 0 0.625106 255 255 255 255
0.909911 0.113021 0.959531 -0.78054 0 0.625106 255 255 255 255
0.909911 -0.113021 0.959531 -0.78054 0 0.625106 255 255 255 255
0.735808 0.111503 0.742137 -0.78054 0 0.625106 255 255 255 255
0.735808 -0.111503 0.742137 -0.78054 0 0.625106 255 255 255 255
0.39604 -0.066304 0.317885 -0.78054 0 0.625106 255 255 255 255
0.569055 0.089999 0.53392 -0.78054 0 0.625106 255 255 255 255
0.568307 -0.089189 0.532987 -0.78054 0 0.625106 255 255 255 255
1.29284 0 1.43767 -0.78054 0 0.625106 255 255 255 255
1.16881 -0.180891 1.2828 -0.78054 0 0.625106 255 255 255 255
1.16881 0.180891 1.2828 -0.78054 0 0.625106 255 255 255 255
0.997684 0.154449 1.06913 -0.78054 0 0.625106 255 255 255 255
0.997684 -0.154449 1.06913 -0.78054 0 0.625106 255 255 255 255
0.397289 0.083289 0.319446 -0.78054 0 0.625106 255 255 255 255
0.825069 0.142351 0.853593 -0.78054 0 0.625106 255 255 255 255
0.825069 -0.142351 0.853593 -0.78054 0 0.625106 255 255 255 255
0.652239 0.134111 0.637788 -0.78054 0 0.625106 255 255 255 255
0.652162 -0.134029 0.637693 -0.78054 0 0.625106 255 255 255 255
1.10108 -0 1.19824 -0.78054 0 0.625106 255 255 255 255
0.48219 0.12281 0.425457 -0.78054 0 0.625106 255 255 255 255
0.482886 -0.120592 0.426326 -0.78054 0 0.625106 255 255 255 255
0.246777 -0.089589 0.131508 -0.78054 0 0.625106 255 255 255 255
0.246777 0.0908 0.131508 -0.78054 0 0.625106 255 255 255 255
1.30749 0.218023 1.45597 -0.78054 0 0.625106 255 255 255 255
1.30749 -0.218023 1.45597 -0.78054 0 0.625106 255 255 255 255
0.908419 -0 0.957667 -0.78054 0 0.625106 255 255 255 255
1.31294 -0.090481 1.46277 -0.78054 0 0.625106 255 255 255 255
1.31294 0.090481 1.46277 -0.78054 0 0.625106 255 255 255 255
0.318388 -0.106558 0.220925 -0.78054 0 0.625106 255 255 255 255
0.313882 0.11481 0.215299 -0.78054 0 0.625106 255 255 255 255
1.24024 -0.238926 1.372 -0.78054 0 0.625106 255 255 255 255
1.24024 0.238926 1.372 -0.78054 0 0.625106 255 255 255 255
0.724887 -0 0.7285 -0.78054 0 0.625106 255 255 255 255
1.07546 -0.21791 1.16624 -0.78054 0 0.625106 255 255 255 255
1.07546 0.21791 1.16624 -0.78054 0 0.625106 255 255 255 255
1.22991 -0.054598 1.3591 -0.78054 0 0.625106 255 255 255 255
1.22986 0.054465 1.35904 -0.78054 0 0.625106 255 255 255 255
0.232991 0.000969 0.114294 -0.78054 0 0.625106 255 255 255 255
1.15073 0.074791 1.26023 -0.78054 0 0.625106 255 255 255 255
1.15074 -0.07481 1.26024 -0.78054 0 0.625106 255 255 255 255
1.03492 0.066147 1.11562 -0.78054 0 0.625106 255 255 255 255
1.03504 -0.066635 1.11577 -0.78054 0 0.625106 255 255 255 255
-0.009998 -1.16091 1.27294 0 0.78054 0.625106 255 255 255 255
-0 -0.983028 1.05083 0 0.78054 0.625106 255 255 255 255
-0 -0.820441 0.847814 0 0.78054 0.625106 255 255 255 255
-0 -0.659506 0.646862 0 0.78054 0.625106 255 255 255 255
0 -0.48907 0.434048 0 0.78054 0.625106 255 255 255 255
0.003633 -0.308402 0.208456 0 0.78054 0.625106 255 255 255 255
-0.134985 -1.25843 1.39471 0 0.78054 0.625106 255 255 255 255
0.134985 -1.25843 1.39471 0 0.78054 0.625106 255 255 255 255
0.119182 -1.08182 1.17418 0 0.78054 0.625106 255 255 255 255
-0.119182 -1.08182 1.17418 0 0.78054 0.625106 255 255 255 255
-0.104693 -0.905192 0.953639 0 0.78054 0.625106 255 255 255 255
0.104693 -0.905192 0.953639 0 0.78054 0.625106 255 255 255 255
0.111909 -0.734785 0.740859 0 0.78054 0.625106 255 255 255 255
-0.111909 -0.734785 0.740859 0 0.78054 0.625106 255 255 255 255
-0.066304 -0.39604 0.317885 0 0.78054 0.625106 255 255 255 255
0.089999 -0.569055 0.53392 0 0.78054 0.625106 255 255 255 255
-0.089189 -0.568307 0.532987 0 0.78054 0.625106 255 255 255 255
-0.183526 -1.16437 1.27727 0 0.78054 0.625106 255 255 255 255
0.181613 -1.16674 1.28022 0 0.78054 0.625106 255 255 255 255
-0.006249 -1.29327 1.43822 0 0.78054 0.625106 255 255 255 255
-0.157355 -0.991419 1.06131 0 0.78054 0.625106 255 255 255 255
0.157355 -0.991419 1.06131 0 0.78054 0.625106 255 255 255 255
0.083289 -0.397289 0.319446 0 0.78054 0.625106 255 255 255 255
-0.159023 -0.83294 0.86342 0 0.78054 0.625106 255 255 255 255
0.159023 -0.83294 0.86342 0 0.78054 0.625106 255 255 255 255
0.134153 -0.652134 0.637658 0 0.78054 0.625106 255 255 255 255
-0.13407 -0.652058 0.637563 0 0.78054 0.625106 255 255 255 255
-0.001428 -1.09318 1.18837 0 0.78054 0.625106 255 255 255 255
-0.120592 -0.482886 0.426326 0 0.78054 0.625106 255 255 255 255
0.12281 -0.48219 0.425457 0 0.78054 0.625106 255 255 255 255
-0.089589 -0.246777 0.131508 0 0.78054 0.625106 255 255 255 255
0.0908 -0.246777 0.131508 0 0.78054 0.625106 255 255 255 255
-0 -0.914223 0.964915 0 0.78054 0.625106 255 255 255 255
-0.219906 -1.30367 1.4512 0 0.78054 0.625106 255 255 255 255
0.219906 -1.30367 1.4512 0 0.78054 0.625106 255 255 255 255
0.11481 -0.313882 0.215299 0 0.78054 0.625106 255 255 255 255
-0.106558 -0.318388 0.220925 0 0.78054 0.625106 255 255 255 255
0 -0.72874 0.733311 0 0.78054 0.625106 255 255 255 255
0.046222 -1.21164 1.33628 0 0.78054 0.625106 255 255 255 255
-0.234663 -1.23908 1.37054 0 0.78054 0.625106 255 255 255 255
0.234663 -1.23908 1.37054 0 0.78054 0.625106 255 255 255 255
0.122067 -1.32167 1.47368 0 0.78054 0.625106 255 255 255 255
-0.124177 -1.32117 1.47305 0 0.78054 0.625106 255 255 255 255
0.219686 -1.07468 1.16527 0 0.78054 0.625106 255 255 255 255
-0.222783 -1.07417 1.16463 0 0.78054 0.625106 255 255 255 255
-0.062252 -1.20444 1.32729 0 0.78054 0.625106 255 255 255 255
0.000969 -0.232991 0.114294 0 0.78054 0.625106 255 255 255 255
-0.081443 -1.13908 1.24568 0 0.78054 0.625106 255 255 255 255
0.067118 -1.14286 1.2504 0 0.78054 0.625106 255 255 255 255
-0.067617 -1.02824 1.10728 0 0.78054 0.625106 255 255 255 255
0.067972 -1.02836 1.10744 0 0.78054 0.625106 255 255 255 255
0.204433 -0.90497 0.953362 0 0.78054 0.625106 255 255 255 255
-0.204433 -0.90497 0.953362 0 0.78054 0.625106 255 255 255 255
0.009998 1.16091 1.27294 0 -0.78054 0.625106 255 255 255 255
0 0.983028 1.05083 0 -0.78054 0.625106 255 255 255 255
0 0.820441 0.847814 0 -0.78054 0.625106 255 255 255 255
-0 0.669767 0.659675 0 -0.78054 0.625106 255 255 255 255
0 0.48907 0.434048 0 -0.78054 0.625106 255 255 255 255
-0.003633 0.308402 0.208456 0 -0.78054 0.625106 255 255 255 255
0.134985 1.25843 1.39471 0 -0.78054 0.625106 255 255 255 255
-0.134985 1.25843 1.39471 0 -0.78054 0.625106 255 255 255 255
-0.119182 1.08182 1.17418 0 -0.78054 0.625106 255 255 255 255
0.119182 1.08182 1.17418 0 -0.78054 0.625106 255 255 255 255
0.104693 0.905192 0.953639 0 -0.78054 0.625106 255 255 255 255
-0.104693 0.905192 0.953639 0 -0.78054 0.625106 255 255 255 255
-0.103401 0.739973 0.747338 0 -0.78054 0.625106 255 255 255 255
0.103401 0.739973 0.747338 0 -0.78054 0.625106 255 255 255 255
0.066304 0.39604 0.317885 0 -0.78054 0.625106 255 255 255 255
-0.089999 0.570521 0.535751 0 -0.78054 0.625106 255 255 255 255
0.089189 0.569982 0.535079 0 -0.78054 0.625106 255 255 255 255
-0.181613 1.16674 1.28022 0 -0.78054 0.625106 255 255 255 255
0.183526 1.16437 1.27727 0 -0.78054 0.625106 255 255 255 255
0.006249 1.29327 1.43822 0 -0.78054 0.625106 255 255 255 255
0.157355 0.991419 1.06131 0 -0.78054 0.625106 255 255 255 255
-0.157355 0.991419 1.06131 0 -0.78054 0.625106 255 255 255 255
-0.083289 0.397289 0.319446 0 -0.78054 0.625106 255 255 255 255
0.157605 0.833804 0.8645 0 -0.78054 0.625106 255 255 255 255
-0.157605 0.833804 0.8645 0 -0.78054 0.625106 255 255 255 255
-0.1343 0.654284 0.640343 0 -0.78054 0.625106 255 255 255 255
0.134184 0.654208 0.640247 0 -0.78054 0.625106 255 255 255 255
0.001428 1.09318 1.18837 0 -0.78054 0.625106 255 255 255 255
0.120592 0.482886 0.426326 0 -0.78054 0.625106 255 255 255 255
-0.12281 0.482483 0.425823 0 -0.78054 0.625106 255 255 255 255
0.089589 0.246777 0.131508 0 -0.78054 0.625106 255 255 255 255
-0.0908 0.246777 0.131508 0 -0.78054 0.625106 255 255 255 255
0 0.907619 0.956669 0 -0.78054 0.625106 255 255 255 255
0.219906 1.30367 1.4512 0 -0.78054 0.625106 255 255 255 255
-0.219906 1.30367 1.4512 0 -0.78054 0.625106 255 255 255 255
0.106558 0.318388 0.220925 0 -0.78054 0.625106 255 255 255 255
-0.11481 0.313882 0.215299 0 -0.78054 0.625106 255 255 255 255
-0 0.742539 0.750542 0 -0.78054 0.625106 255 255 255 255
-0.046222 1.21164 1.33628 0 -0.78054 0.625106 255 255 255 255
0.234663 1.23908 1.37054 0 -0.78054 0.625106 255 255 255 255
-0.234663 1.23908 1.37054 0 -0.78054 0.625106 255 255 255 255
-0.122067 1.32167 1.47368 0 -0.78054 0.625106 255 255 255 255
0.124177 1.32117 1.47305 0 -0.78054 0.625106 255 255 255 255
0.222783 1.07417 1.16463 0 -0.78054 0.625106 255 255 255 255
-0.219686 1.07468 1.16527 0 -0.78054 0.625106 255 255 255 255
0.062252 1.20444 1.32729 0 -0.78054 0.625106 255 255 255 255
-0.000969 0.232991 0.114294 0 -0.78054 0.625106 255 255 255 255
-0.067118 1.14286 1.2504 0 -0.78054 0.625106 255 255 255 255
0.081443 1.13908 1.24568 0 -0.78054 0.625106 255 255 255 255
0.067617 1.02824 1.10728 0 -0.78054 0.625106 255 255 255 255
-0.067972 1.02836 1.10744 0 -0.78054 0.625106 255 255 255 255
-0.204359 0.905015 0.953418 0 -0.78054 0.625106 255 255 255 255
0.204359 0.905015 0.953418 0 -0.78054 0.625106 255 255 255 255
-1.16091 0.009998 1.27294 0.78054 0 0.625106 255 255 255 255
-0.983028 0 1.05083 0.78054 0 0.625106 255 255 255 255
-0.820441 0 0.847814 0.78054 0 0.625106 255 255 255 255
-0.669767 -0 0.659675 0.78054 0 0.625106 255 255 255 255
-0.48907 0 0.434048 0.78054 0 0.625106 255 255 255 255
-0.308402 -0.003633 0.208456 0.78054 0 0.625106 255 255 255 255
-1.25843 0.134985 1.39471 0.78054 0 0.625106 255 255 255 255
-1.25843 -0.134985 1.39471 0.78054 0 0.625106 255 255 255 255
-1.08182 -0.119182 1.17418 0.78054 0 0.625106 255 255 255 255
-1.08182 0.119182 1.17418 0.78054 0 0.625106 255 255 255 255
-0.905192 0.104693 0.953639 0.78054 0 0.625106 255 255 255 255
-0.905192 -0.104693 0.953639 0.78054 0 0.625106 255 255 255 255
-0.739973 -0.103401 0.747338 0.78054 0 0.625106 255 255 255 255
-0.739973 0.103401 0.747338 0.78054 0 0.625106 255 255 255 255
-0.39604 0.066304 0.317885 0.78054 0 0.625106 255 255 255 255
-0.570521 -0.089999 0.535751 0.78054 0 0.625106 255 255 255 255
-0.569982 0.089189 0.535079 0.78054 0 0.625106 255 255 255 255
-1.16437 0.183526 1.27727 0.78054 0 0.625106 255 255 255 255
-1.16674 -0.181613 1.28022 0.78054 0 0.625106 255 255 255 255
-1.29327 0.006249 1.43822 0.78054 0 0.625106 255 255 255 255
-0.991419 0.157355 1.06131 0.78054 0 0.625106 255 255 255 255
-0.991419 -0.157355 1.06131 0.78054 0 0.625106 255 255 255 255
-0.397289 -0.083289 0.319446 0.78054 0 0.625106 255 255 255 255
-0.833804 0.157605 0.8645 0.78054 0 0.625106 255 255 255 255
-0.833804 -0.157605 0.8645 0.78054 0 0.625106 255 255 255 255
-0.654284 -0.1343 0.640343 0.78054 0 0.625106 255 255 255 255
-0.654208 0.134184 0.640247 0.78054 0 0.625106 255 255 255 255
-1.09318 0.001428 1.18837 0.78054 0 0.625106 255 255 255 255
-0.482886 0.120592 0.426326 0.78054 0 0.625106 255 255 255 255
-0.482483 -0.12281 0.425823 0.78054 0 0.625106 255 255 255 255
-0.246777 0.089589 0.131508 0.78054 0 0.625106 255 255 255 255
-0.246777 -0.0908 0.131508 0.78054 0 0.625106 255 255 255 255
-0.914223 0 0.964915 0.78054 0 0.625106 255 255 255 255
-1.30367 0.219906 1.4512 0.78054 0 0.625106 255 255 255 255
-1.30367 -0.219906 1.4512 0.78054 0 0.625106 255 255 255 255
-0.313882 -0.11481 0.215299 0.78054 0 0.625106 255 255 255 255
-0.318388 0.106558 0.220925 0.78054 0 0.625106 255 255 255 255
-0.742539 -0 0.750542 0.78054 0 0.625106 255 255 255 255
-1.21164 -0.046222 1.33628 0.78054 0 0.625106 255 255 255 255
-1.23908 0.234663 1.37054 0.78054 0 0.625106 255 255 255 255
-1.23908 -0.234663 1.37054 0.78054 0 0.625106 255 255 255 255
-1.32167 -0.122067 1.47368 0.78054 0 0.625106 255 255 255 255
-1.32117 0.124177 1.47305 0.78054 0 0.625106 255 255 255 255
-1.07417 0.222783 1.16463 0.78054 0 0.625106 255 255 255 255
-1.07468 -0.219686 1.16527 0.78054 0 0.625106 255 255 255 255
-1.20444 0.062252 1.32729 0.78054 0 0.625106 255 255 255 255
-0.232991 -0.000969 0.114294 0.78054 0 0.625106 255 255 255 255
-1.14286 -0.067118 1.2504 0.78054 0 0.625106 255 255 255 255
-1.13908 0.081443 1.24568 0.78054 0 0.625106 255 255 255 255
-1.02824 0.067617 1.10728 0.78054 0 0.625106 255 255 255 255
-1.02836 -0.067972 1.10744 0.78054 0 0.625106 255 255 255 255
-0.905015 -0.204359 0.953418 0.78054 0 0.625106 255 255 255 255
-0.905015 0.204359 0.953418 0.78054 0 0.625106 255 255 255 255
0.693297 0.314665 1.31698 0 -0.994522 0.104528 255 255 255 255
0.594888 0.284562 1.03057 0 -0.994522 0.104528 255 255 255 255
0.947939 0.323463 1.40069 0 -0.994522 0.104528 255 255 255 255
0.502613 0.263627 0.831387 0 -0.994522 0.104528 255 255 255 255
0.55331 0.334383 1.50458 0 -0.994522 0.104528 255 255 255 255
0.5081 0.3056 1.23073 0 -0.994522 0.104528 255 255 255 255
0.768605 0.334603 1.50668 0 -0.994522 0.104528 255 255 255 255
0.776679 0.294326 1.12346 0 -0.994522 0.104528 255 255 255 255
0.42878 0.243743 0.642204 0 -0.994522 0.104528 255 255 255 255
0.914334 0.308111 1.25462 0 -0.994522 0.104528 255 255 255 255
1.08863 0.328068 1.4445 0 -0.994522 0.104528 255 255 255 255
0.437608 0.278772 0.975482 0 -0.994522 0.104528 255 255 255 255
0.636689 0.269982 0.891854 0 -0.994522 0.104528 255 255 255 255
0.461746 0.321071 1.37793 0 -0.994522 0.104528 255 255 255 255
0.374972 0.231631 0.526964 0 -0.994522 0.104528 255 255 255 255
0.891839 0.337625 1.53543 0 -0.994522 0.104528 255 255 255 255
0.74107 0.279815 0.985409 0 -0.994522 0.104528 255 255 255 255
0.64814 0.299891 1.17642 0 -0.994522 0.104528 255 255 255 255
0.666678 0.34337 1.59009 0 -0.994522 0.104528 255 255 255 255
0.410068 0.295464 1.1343 0 -0.994522 0.104528 255 255 255 255
0.477354 0.345022 1.60581 0 -0.994522 0.104528 255 255 255 255
0.541409 0.249314 0.695206 0 -0.994522 0.104528 255 255 255 255
1.04676 0.314165 1.31222 0 -0.994522 0.104528 255 255 255 255
0.810621 0.322051 1.38725 0 -0.994522 0.104528 255 255 255 255
0.580339 0.319194 1.36007 0 -0.994522 0.104528 255 255 255 255
0.399564 0.25506 0.749876 0 -0.994522 0.104528 255 255 255 255
0.268391 0.204368 0.267576 0 -0.994522 0.104528 255 255 255 255
0.899607 0.294957 1.12947 0 -0.994522 0.104528 255 255 255 255
1.00912 0.336694 1.52657 0 -0.994522 0.104528 255 255 255 255
0.311187 0.215344 0.372003 0 -0.994522 0.104528 255 255 255 255
0.791414 0.306096 1.23545 0 -0.994522 0.104528 255 255 255 255
0.440116 0.33404 1.50132 0 -0.994522 0.104528 255 255 255 255
0.675123 0.328416 1.44781 0 -0.994522 0.104528 255 255 255 255
0.54295 0.274236 0.932322 0 -0.994522 0.104528 255 255 255 255
0.79068 0.344916 1.6048 0 -0.994522 0.104528 255 255 255 255
0.373345 0.26488 0.843308 0 -0.994522 0.104528 255 255 255 255
0.395686 0.307226 1.2462 0 -0.994522 0.104528 255 255 255 255
0.641496 0.258912 0.786528 0 -0.994522 0.104528 255 255 255 255
1.19327 0.331678 1.47885 0 -0.994522 0.104528 255 255 255 255
0.519761 0.292858 1.1095 0 -0.994522 0.104528 255 255 255 255
0.842687 0.283998 1.02521 0 -0.994522 0.104528 255 255 255 255
1.00649 0.302994 1.20594 0 -0.994522 0.104528 255 255 255 255
0.690194 0.289648 1.07896 0 -0.994522 0.104528 255 255 255 255
0.499291 0.236873 0.576837 0 -0.994522 0.104528 255 255 255 255
0.572694 0.347981 1.63396 0 -0.994522 0.104528 255 255 255 255
0.33678 0.245915 0.662867 0 -0.994522 0.104528 255 255 255 255
0.74232 0.269181 0.88423 0 -0.994522 0.104528 255 255 255 255
0.607469 0.309838 1.27105 0 -0.994522 0.104528 255 255 255 255
0.417986 0.352432 1.67631 0 -0.994522 0.104528 255 255 255 255
0.314665 0.693297 1.31698 -0.994522 0 0.104528 255 255 255 255
0.284562 0.594888 1.03057 -0.994522 0 0.104528 255 255 255 255
0.323463 0.947939 1.40069 -0.994522 0 0.104528 255 255 255 255
0.263627 0.502613 0.831387 -0.994522 0 0.104528 255 255 255 255
0.334383 0.55331 1.50458 -0.994522 0 0.104528 255 255 255 255
0.3056 0.5081 1.23073 -0.994522 0 0.104528 255 255 255 255
0.334603 0.768605 1.50668 -0.994522 0 0.104528 255 255 255 255
0.294326 0.776679 1.12346 -0.994522 0 0.104528 255 255 255 255
0.243743 0.42878 0.642204 -0.994522 0 0.104528 255 255 255 255
0.308111 0.914334 1.25462 -0.994522 0 0.104528 255 255 255 255
0.328068 1.08863 1.4445 -0.994522 0 0.104528 255 255 255 255
0.278772 0.437608 0.975482 -0.994522 0 0.104528 255 255 255 255
0.269982 0.636689 0.891854 -0.994522 0 0.104528 255 255 255 255
0.321071 0.461746 1.37793 -0.994522 0 0.104528 255 255 255 255
0.231631 0.374972 0.526964 -0.994522 0 0.104528 255 255 255 255
0.337625 0.891839 1.53543 -0.994522 0 0.104528 255 255 255 255
0.279815 0.74107 0.985409 -0.994522 0 0.104528 255 255 255 255
0.299891 0.64814 1.17642 -0.994522 0 0.104528 255 255 255 255
0.34337 0.666678 1.59009 -0.994522 0 0.104528 255 255 255 255
0.295464 0.410068 1.1343 -0.994522 0 0.104528 255 255 255 255
0.345022 0.477354 1.60581 -0.994522 0 0.104528 255 255 255 255
0.249314 0.541409 0.695206 -0.994522 0 0.104528 255 255 255 255
0.314165 1.04676 1.31222 -0.994522 0 0.104528 255 255 255 255
0.322051 0.810621 1.38725 -0.994522 0 0.104528 255 255 255 255
0.319194 0.580339 1.36007 -0.994522 0 0.104528 255 255 255 255
0.25506 0.399564 0.749876 -0.994522 0 0.104528 255 255 255 255
0.204368 0.268391 0.267576 -0.994522 0 0.104528 255 255 255 255
0.294957 0.899607 1.12947 -0.994522 0 0.104528 255 255 255 255
0.336694 1.00912 1.52657 -0.994522 0 0.104528 255 255 255 255
0.215344 0.311187 0.372003 -0.994522 0 0.104528 255 255 255 255
0.306096 0.791414 1.23545 -0.994522 0 0.104528 255 255 255 255
0.33404 0.440116 1.50132 -0.994522 0 0.104528 255 255 255 255
0.328416 0.675123 1.44781 -0.994522 0 0.104528 255 255 255 255
0.274236 0.54295 0.932322 -0.994522 0 0.104528 255 255 255 255
0.344916 0.79068 1.6048 -0.994522 0 0.104528 255 255 255 255
0.26488 0.373345 0.843308 -0.994522 0 0.104528 255 255 255 255
0.307226 0.395686 1.2462 -0.994522 0 0.104528 255 255 255 255
0.258912 0.641496 0.786528 -0.994522 0 0.104528 255 255 255 255
0.331678 1.19327 1.47885 -0.994522 0 0.104528 255 255 255 255
0.292858 0.519761 1.1095 -0.994522 0 0.104528 255 255 255 255
0.283998 0.842687 1.02521 -0.994522 0 0.104528 255 255 255 255
0.302994 1.00649 1.20594 -0.994522 0 0.104528 255 255 255 255
0.289648 0.690194 1.07896 -0.994522 0 0.104528 255 255 255 255
0.236873 0.499291 0.576837 -0.994522 0 0.104528 255 255 255 255
0.347981 0.572694 1.63396 -0.994522 0 0.104528 255 255 255 255
0.245915 0.33678 0.662867 -0.994522 0 0.104528 255 255 255 255
0.269181 0.74232 0.88423 -0.994522 0 0.104528 255 255 255 255
0.309838 0.607469 1.27105 -0.994522 0 0.104528 255 255 255 255
0.352432 0.417986 1.67631 -0.994522 0 0.104528 255 255 255 255
0.314665 -0.693297 1.31698 -0.994522 0 0.104528 255 255 255 255
0.284562 -0.594888 1.03057 -0.994522 0 0.104528 255 255 255 255
0.323463 -0.947939 1.40069 -0.994522 0 0.104528 255 255 255 255
0.263627 -0.502613 0.831387 -0.994522 0 0.104528 255 255 255 255
0.334383 -0.55331 1.50458 -0.994522 0 0.104528 255 255 255 255
0.3056 -0.5081 1.23073 -0.994522 0 0.104528 255 255 255 255
0.334603 -0.768605 1.50668 -0.994522 0 0.104528 255 255 255 255
0.294326 -0.776679 1.12346 -0.994522 0 0.104528 255 255 255 255
0.243743 -0.42878 0.642204 -0.994522 0 0.104528 255 255 255 255
0.308111 -0.914334 1.25462 -0.994522 0 0.104528 255 255 255 255
0.328068 -1.08863 1.4445 -0.994522 0 0.104528 255 255 255 255
0.278772 -0.437608 0.975482 -0.994522 0 0.104528 255 255 255 255
0.269982 -0.636689 0.891854 -0.994522 0 0.104528 255 255 255 255
0.321071 -0.461746 1.37793 -0.994522 0 0.104528 255 255 255 255
0.231631 -0.374972 0.526964 -0.994522 0 0.104528 255 255 255 255
0.337625 -0.891839 1.53543 -0.994522 0 0.104528 255 255 255 255
0.279815 -0.74107 0.985409 -0.994522 0 0.104528 255 255 255 255
0.299891 -0.64814 1.17642 -0.994522 0 0.104528 255 255 255 255
0.34337 -0.666678 1.59009 -0.994522 0 0.104528 255 255 255 255
0.295464 -0.410068 1.1343 -0.994522 0 0.104528 255 255 255 255
0.345022 -0.477354 1.60581 -0.994522 0 0.104528 255 255 255 255
0.249314 -0.541409 0.695206 -0.994522 0 0.104528 255 255 255 255
0.314165 -1.04676 1.31222 -0.994522 0 0.104528 255 255 255 255
0.322051 -0.810621 1.38725 -0.994522 0 0.104528 255 255 255 255
0.319194 -0.580339 1.36007 -0.994522 0 0.104528 255 255 255 255
0.25506 -0.399564 0.749876 -0.994522 0 0.104528 255 255 255 255
0.204368 -0.268391 0.267576 -0.994522 0 0.104528 255 255 255 255
0.294957 -0.899607 1.12947 -0.994522 0 0.104528 255 255 255 255
0.336694 -1.00912 1.52657 -0.994522 0 0.104528 255 255 255 255
0.215344 -0.311187 0.372003 -0.994522 0 0.104528 255 255 255 255
0.306096 -0.791414 1.23545 -0.994522 0 0.104528 255 255 255 255
0.33404 -0.440116 1.50132 -0.994522 0 0.104528 255 255 255 255
0.328416 -0.675123 1.44781 -0.994522 0 0.104528 255 255 255 255
0.274236 -0.54295 0.932322 -0.994522 0 0.104528 255 255 255 255
0.344916 -0.79068 1.6048 -0.994522 0 0.104528 255 255 255 255
0.26488 -0.373345 0.843308 -0.994522 0 0.104528 255 255 255 255
0.307226 -0.395686 1.2462 -0.994522 0 0.104528 255 255 255 255
0.258912 -0.641496 0.786528 -0.994522 0 0.104528 255 255 255 255
0.331678 -1.19327 1.47885 -0.994522 0 0.104528 255 255 255 255
0.292858 -0.519761 1.1095 -0.994522 0 0.104528 255 255 255 255
0.283998 -0.842687 1.02521 -0.994522 0 0.104528 255 255 255 255
0.302994 -1.00649 1.20594 -0.994522 0 0.104528 255 255 255 255
0.289648 -0.690194 1.07896 -0.994522 0 0.104528 255 255 255 255
0.236873 -0.499291 0.576837 -0.994522 0 0.104528 255 255 255 255
0.347981 -0.572694 1.63396 -0.994522 0 0.104528 255 255 255 255
0.245915 -0.33678 0.662867 -0.994522 0 0.104528 255 255 255 255
0.269181 -0.74232 0.88423 -0.994522 0 0.104528 255 255 255 255
0.309838 -0.607469 1.27105 -0.994522 0 0.104528 255 255 255 255
0.352432 -0.417986 1.67631 -0.994522 0 0.104528 255 255 255 255
-0.693297 0.314665 1.31698 0 -0.994522 0.104528 255 255 255 255
-0.594888 0.284562 1.03057 0 -0.994522 0.104528 255 255 255 255
-0.947939 0.323463 1.40069 0 -0.994522 0.104528 255 255 255 255
-0.502613 0.263627 0.831387 0 -0.994522 0.104528 255 255 255 255
-0.55331 0.334383 1.50458 0 -0.994522 0.104528 255 255 255 255
-0.5081 0.3056 1.23073 0 -0.994522 0.104528 255 255 255 255
-0.768605 0.334603 1.50668 0 -0.994522 0.104528 255 255 255 255
-0.776679 0.294326 1.12346 0 -0.994522 0.104528 255 255 255 255
-0.42878 0.243743 0.642204 0 -0.994522 0.104528 255 255 255 255
-0.914334 0.308111 1.25462 0 -0.994522 0.104528 255 255 255 255
-1.08863 0.328068 1.4445 0 -0.994522 0.104528 255 255 255 255
-0.437608 0.278772 0.975482 0 -0.994522 0.104528 255 255 255 255
-0.636689 0.269982 0.891854 0 -0.994522 0.104528 255 255 255 255
-0.461746 0.321071 1.37793 0 -0.994522 0.104528 255 255 255 255
-0.374972 0.231631 0.526964 0 -0.994522 0.104528 255 255 255 255
-0.891839 0.337625 1.53543 0 -0.994522 0.104528 255 255 255 255
-0.74107 0.279815 0.985409 0 -0.994522 0.104528 255 255 255 255
-0.64814 0.299891 1.17642 0 -0.994522 0.104528 255 255 255 255
-0.666678 0.34337 1.59009 0 -0.994522 0.104528 255 255 255 255
-0.410068 0.295464 1.1343 0 -0.994522 0.104528 255 255 255 255
-0.477354 0.345022 1.60581 0 -0.994522 0.104528 255 255 255 255
-0.541409 0.249314 0.695206 0 -0.994522 0.104528 255 255 255 255
-1.04676 0.314165 1.31222 0 -0.994522 0.104528 255 255 255 255
-0.810621 0.322051 1.38725 0 -0.994522 0.104528 255 255 255 255
-0.580339 0.319194 1.36007 0 -0.994522 0.104528 255 255 255 255
-0.399564 0.25506 0.749876 0 -0.994522 0.104528 255 255 255 255
-0.268391 0.204368 0.267576 0 -0.994522 0.104528 255 255 255 255
-0.899607 0.294957 1.12947 0 -0.994522 0.104528 255 255 255 255
-1.00912 0.336694 1.52657 0 -0.994522 0.104528 255 255 255 255
-0.311187 0.215344 0.372003 0 -0.994522 0.104528 255 255 255 255
-0.791414 0.306096 1.23545 0 -0.994522 0.104528 255 255 255 255
-0.440116 0.33404 1.50132 0 -0.994522 0.104528 255 255 255 255
-0.675123 0.328416 1.44781 0 -0.994522 0.104528 255 255 255 255
-0.54295 0.274236 0.932322 0 -0.994522 0.104528 255 255 255 255
-0.79068 0.344916 1.6048 0 -0.994522 0.104528 255 255 255 255
-0.373345 0.26488 0.843308 0 -0.994522 0.104528 255 255 255 255
-0.395686 0.307226 1.2462 0 -0.994522 0.104528 255 255 255 255
-0.641496 0.258912 0.786528 0 -0.994522 0.104528 255 255 255 255
-1.19327 0.331678 1.47885 0 -0.994522 0.104528 255 255 255 255
-0.519761 0.292858 1.1095 0 -0.994522 0.104528 255 255 255 255
-0.842687 0.283998 1.02521 0 -0.994522 0.104528 255 255 255 255
-1.00649 0.302994 1.20594 0 -0.994522 0.104528 255 255 255 255
-0.690194 0.289648 1.07896 0 -0.994522 0.104528 255 255 255 255
-0.499291 0.236873 0.576837 0 -0.994522 0.104528 255 255 255 255
-0.572694 0.347981 1.63396 0 -0.994522 0.104528 255 255 255 255
-0.33678 0.245915 0.662867 0 -0.994522 0.104528 255 255 255 255
-0.74232 0.269181 0.88423 0 -0.994522 0.104528 255 255 255 255
-0.607469 0.309838 1.27105 0 -0.994522 0.104528 255 255 255 255
-0.417986 0.352432 1.67631 0 -0.994522 0.104528 255 255 255 255
0.693297 -0.314665 1.31698 0 0.994522 0.104528 255 255 255 255
0.594888 -0.284562 1.03057 0 0.994522 0.104528 255 255 255 255
0.947939 -0.323463 1.40069 0 0.994522 0.104528 255 255 255 255
0.502613 -0.263627 0.831387 0 0.994522 0.104528 255 255 255 255
0.55331 -0.334383 1.50458 0 0.994522 0.104528 255 255 255 255
0.5081 -0.3056 1.23073 0 0.994522 0.104528 255 255 255 255
0.768605 -0.334603 1.50668 0 0.994522 0.104528 255 255 255 255
0.776679 -0.294326 1.12346 0 0.994522 0.104528 255 255 255 255
0.42878 -0.243743 0.642204 0 0.994522 0.104528 255 255 255 255
0.914334 -0.308111 1.25462 0 0.994522 0.104528 255 255 255 255
1.08863 -0.328068 1.4445 0 0.994522 0.104528 255 255 255 255
0.437608 -0.278772 0.975482 0 0.994522 0.104528 255 255 255 255
0.636689 -0.269982 0.891854 0 0.994522 0.104528 255 255 255 255
0.461746 -0.321071 1.37793 0 0.994522 0.104528 255 255 255 255
0.374972 -0.231631 0.526964 0 0.994522 0.104528 255 255 255 255
0.891839 -0.337625 1.53543 0 0.994522 0.104528 255 255 255 255
0.74107 -0.279815 0.985409 0 0.994522 0.104528 255 255 255 255
0.64814 -0.299891 1.17642 0 0.994522 0.104528 255 255 255 255
0.666678 -0.34337 1.59009 0 0.994522 0.104528 255 255 255 255
0.410068 -0.295464 1.1343 0 0.994522 0.104528 255 255 255 255
0.477354 -0.345022 1.60581 0 0.994522 0.104528 255 255 255 255
0.541409 -0.249314 0.695206 0 0.994522 0.104528 255 255 255 255
1.04676 -0.314165 1.31222 0 0.994522 0.104528 255 255 255 255
0.810621 -0.322051 1.38725 0 0.994522 0.104528 255 255 255 255
0.580339 -0.319194 1.36007 0 0.994522 0.104528 255 255 255 255
0.399564 -0.25506 0.749876 0 0.994522 0.104528 255 255 255 255
0.268391 -0.204368 0.267576 0 0.994522 0.104528 255 255 255 255
0.899607 -0.294957 1.12947 0 0.994522 0.104528 255 255 255 255
1.00912 -0.336694 1.52657 0 0.994522 0.104528 255 255 255 255
0.311187 -0.215344 0.372003 0 0.994522 0.104528 255 255 255 255
0.791414 -0.306096 1.23545 0 0.994522 0.104528 255 255 255 255
0.440116 -0.33404 1.50132 0 0.994522 0.104528 255 255 255 255
0.675123 -0.328416 1.44781 0 0.994522 0.104528 255 255 255 255
0.54295 -0.274236 0.932322 0 0.994522 0.104528 255 255 255 255
0.79068 -0.344916 1.6048 0 0.994522 0.104528 255 255 255 255
0.373345 -0.26488 0.843308 0 0.994522 0.104528 255 255 255 255
0.395686 -0.307226 1.2462 0 0.994522 0.104528 255 255 255 255
0.641496 -0.258912 0.786528 0 0.994522 0.104528 255 255 255 255
1.19327 -0.331678 1.47885 0 0.994522 0.104528 255 255 255 255
0.519761 -0.292858 1.1095 0 0.994522 0.104528 255 255 255 255
0.842687 -0.283998 1.02521 0 0.994522 0.104528 255 255 255 255
1.00649 -0.302994 1.20594 0 0.994522 0.104528 255 255 255 255
0.690194 -0.289648 1.07896 0 0.994522 0.104528 255 255 255 255
0.499291 -0.236873 0.576837 0 0.994522 0.104528 255 255 255 255
0.572694 -0.347981 1.63396 0 0.994522 0.104528 255 255 255 255
0.33678 -0.245915 0.662867 0 0.994522 0.104528 255 255 255 255
0.74232 -0.269181 0.88423 0 0.994522 0.104528 255 255 255 255
0.607469 -0.309838 1.27105 0 0.994522 0.104528 255 255 255 255
0.417986 -0.352432 1.67631 0 0.994522 0.104528 255 255 255 255
-0.314665 0.693297 1.31698 0.994522 0 0.104528 255 255 255 255
-0.284562 0.594888 1.03057 0.994522 0 0.104528 255 255 255 255
-0.323463 0.947939 1.40069 0.994522 0 0.104528 255 255 255 255
-0.263627 0.502613 0.831387 0.994522 0 0.104528 255 255 255 255
-0.334383 0.55331 1.50458 0.994522 0 0.104528 255 255 255 255
-0.3056 0.5081 1.23073 0.994522 0 0.104528 255 255 255 255
-0.334603 0.768605 1.50668 0.994522 0 0.104528 255 255 255 255
-0.294326 0.776679 1.12346 0.994522 0 0.104528 255 255 255 255
-0.243743 0.42878 0.642204 0.994522 0 0.104528 255 255 255 255
-0.308111 0.914334 1.25462 0.994522 0 0.104528 255 255 255 255
-0.328068 1.08863 1.4445 0.994522 0 0.104528 255 255 255 255
-0.278772 0.437608 0.975482 0.994522 0 0.104528 255 255 255 255
-0.269982 0.636689 0.891854 0.994522 0 0.104528 255 255 255 255
-0.321071 0.461746 1.37793 0.994522 0 0.104528 255 255 255 255
-0.231631 0.374972 0.526964 0.994522 0 0.104528 255 255 255 255
-0.337625 0.891839 1.53543 0.994522 0 0.104528 255 255 255 255
-0.279815 0.74107 0.985409 0.994522 0 0.104528 255 255 255 255
-0.299891 0.64814 1.17642 0.994522 0 0.104528 255 255 255 255
-0.34337 0.666678 1.59009 0.994522 0 0.104528 255 255 255 255
-0.295464 0.410068 1.1343 0.994522 0 0.104528 255 255 255 255
-0.345022 0.477354 1.60581 0.994522 0 0.104528 255 255 255 255
-0.249314 0.541409 0.695206 0.994522 0 0.104528 255 255 255 255
-0.314165 1.04676 1.31222 0.994522 0 0.104528 255 255 255 255
-0.322051 0.810621 1.38725 0.994522 0 0.104528 255 255 255 255
-0.319194 0.580339 1.36007 0.994522 0 0.104528 255 255 255 255
-0.25506 0.399564 0.749876 0.994522 0 0.104528 255 255 255 255
-0.204368 0.268391 0.267576 0.994522 0 0.104528 255 255 255 255
-0.294957 0.899607 1.12947 0.994522 0 0.104528 255 255 255 255
-0.336694 1.00912 1.52657 0.994522 0 0.104528 255 255 255 255
-0.215344 0.311187 0.372003 0.994522 0 0.104528 255 255 255 255
-0.306096 0.791414 1.23545 0.994522 0 0.104528 255 255 255 255
-0.33404 0.440116 1.50132 0.994522 0 0.104528 255 255 255 255
-0.328416 0.675123 1.44781 0.994522 0 0.104528 255 255 255 255
-0.274236 0.54295 0.932322 0.994522 0 0.104528 255 255 255 255
-0.344916 0.79068 1.6048 0.994522 0 0.104528 255 255 255 255
-0.26488 0.373345 0.843308 0.994522 0 0.104528 255 255 255 255
-0.307226 0.395686 1.2462 0.994522 0 0.104528 255 255 255 255
-0.258912 0.641496 0.786528 0.994522 0 0.104528 255 255 255 255
-0.331678 1.19327 1.47885 0.994522 0 0.104528 255 255 255 255
-0.292858 0.519761 1.1095 0.994522 0 0.104528 255 255 255 255
-0.283998 0.842687 1.02521 0.994522 0 0.104528 255 255 255 255
-0.302994 1.00649 1.20594 0.994522 0 0.104528 255 255 255 255
-0.289648 0.690194 1.07896 0.994522 0 0.104528 255 255 255 255
-0.236873 0.499291 0.576837 0.994522 0 0.104528 255 255 255 255
-0.347981 0.572694 1.63396 0.994522 0 0.104528 255 255 255 255
-0.245915 0.33678 0.662867 0.994522 0 0.104528 255 255 255 255
-0.269181 0.74232 0.88423 0.994522 0 0.104528 255 255 255 255
-0.309838 0.607469 1.27105 0.994522 0 0.104528 255 255 255 255
-0.352432 0.417986 1.67631 0.994522 0 0.104528 255 255 255 255
-0.314665 -0.693297 1.31698 0.994522 0 0.104528 255 255 255 255
-0.284562 -0.594888 1.03057 0.994522 0 0.104528 255 255 255 255
-0.323463 -0.947939 1.40069 0.994522 0 0.104528 255 255 255 255
-0.263627 -0.502613 0.831387 0.994522 0 0.104528 255 255 255 255
-0.334383 -0.55331 1.50458 0.994522 0 0.104528 255 255 255 255
-0.3056 -0.5081 1.23073 0.994522 0 0.104528 255 255 255 255
-0.334603 -0.768605 1.50668 0.994522 0 0.104528 255 255 255 255
-0.294326 -0.776679 1.12346 0.994522 0 0.104528 255 255 255 255
-0.243743 -0.42878 0.642204 0.994522 0 0.104528 255 255 255 255
-0.308111 -0.914334 1.25462 0.994522 0 0.104528 255 255 255 255
-0.328068 -1.08863 1.4445 0.994522 0 0.104528 255 255 255 255
-0.278772 -0.437608 0.975482 0.994522 0 0.104528 255 255 255 255
-0.269982 -0.636689 0.891854 0.994522 0 0.104528 255 255 255 255
-0.321071 -0.461746 1.37793 0.994522 0 0.104528 255 255 255 255
-0.231631 -0.374972 0.526964 0.994522 0 0.104528 255 255 255 255
-0.337625 -0.891839 1.53543 0.994522 0 0.104528 255 255 255 255
-0.279815 -0.74107 0.985409 0.994522 0 0.104528 255 255 255 255
-0.299891 -0.64814 1.17642 0.994522 0 0.104528 255 255 255 255
-0.34337 -0.666678 1.59009 0.994522 0 0.104528 255 255 255 255
-0.295464 -0.410068 1.1343 0.994522 0 0.104528 255 255 255 255
-0.345022 -0.477354 1.60581 0.994522 0 0.104528 255 255 255 255
-0.249314 -0.541409 0.695206 0.994522 0 0.104528 255 255 255 255
-0.314165 -1.04676 1.31222 0.994522 0 0.104528 255 255 255 255
-0.322051 -0.810621 1.38725 0.994522 0 0.104528 255 255 255 255
-0.319194 -0.580339 1.36007 0.994522 0 0.104528 255 255 255 255
-0.25506 -0.399564 0.749876 0.994522 0 0.104528 255 255 255 255
-0.204368 -0.268391 0.267576 0.994522 0 0.104528 255 255 255 255
-0.294957 -0.899607 1.12947 0.994522 0 0.104528 255 255 255 255
-0.336694 -1.00912 1.52657 0.994522 0 0.104528 255 255 255 255
-0.215344 -0.311187 0.372003 0.994522 0 0.104528 255 255 255 255
-0.306096 -0.791414 1.23545 0.994522 0 0.104528 255 255 255 255
-0.33404 -0.440116 1.50132 0.994522 0 0.104528 255 255 255 255
-0.328416 -0.675123 1.44781 0.994522 0 0.104528 255 255 255 255
-0.274236 -0.54295 0.932322 0.994522 0 0.104528 255 255 255 255
-0.344916 -0.79068 1.6048 0.994522 0 0.104528 255 255 255 255
-0.26488 -0.373345 0.843308 0.994522 0 0.104528 255 255 255 255
-0.307226 -0.395686 1.2462 0.994522 0 0.104528 255 255 255 255
-0.258912 -0.641496 0.786528 0.994522 0 0.104528 255 255 255 255
-0.331678 -1.19327 1.47885 0.994522 0 0.104528 255 255 255 255
-0.292858 -0.519761 1.1095 0.994522 0 0.104528 255 255 255 255
-0.283998 -0.842687 1.02521 0.994522 0 0.104528 255 255 255 255
-0.302994 -1.00649 1.20594 0.994522 0 0.104528 255 255 255 255
-0.289648 -0.690194 1.07896 0.994522 0 0.104528 255 255 255 255
-0.236873 -0.499291 0.576837 0.994522 0 0.104528 255 255 255 255
-0.347981 -0.572694 1.63396 0.994522 0 0.104528 255 255 255 255
-0.245915 -0.33678 0.662867 0.994522 0 0.104528 255 255 255 255
-0.269181 -0.74232 0.88423 0.994522 0 0.104528 255 255 255 255
-0.309838 -0.607469 1.27105 0.994522 0 0.104528 255 255 255 255
-0.352432 -0.417986 1.67631 0.994522 0 0.104528 255 255 255 255
-0.693297 -0.314665 1.31698 0 0.994522 0.104528 255 255 255 255
-0.594888 -0.284562 1.03057 0 0.994522 0.104528 255 255 255 255
-0.947939 -0.323463 1.40069 0 0.994522 0.104528 255 255 255 255
-0.502613 -0.263627 0.831387 0 0.994522 0.104528 255 255 255 255
-0.55331 -0.334383 1.50458 0 0.994522 0.104528 255 255 255 255
-0.5081 -0.3056 1.23073 0 0.994522 0.104528 255 255 255 255
-0.768605 -0.334603 1.50668 0 0.994522 0.104528 255 255 255 255
-0.776679 -0.294326 1.12346 0 0.994522 0.104528 255 255 255 255
-0.42878 -0.243743 0.642204 0 0.994522 0.104528 255 255 255 255
-0.914334 -0.308111 1.25462 0 0.994522 0.104528 255 255 255 255
-1.08863 -0.328068 1.4445 0 0.994522 0.104528 255 255 255 255
-0.437608 -0.278772 0.975482 0 0.994522 0.104528 255 255 255 255
-0.636689 -0.269982 0.891854 0 0.994522 0.104528 255 255 255 255
-0.461746 -0.321071 1.37793 0 0.994522 0.104528 255 255 255 255
-0.374972 -0.231631 0.526964 0 0.994522 0.104528 255 255 255 255
-0.891839 -0.337625 1.53543 0 0.994522 0.104528 255 255 255 255
-0.74107 -0.279815 0.985409 0 0.994522 0.104528 255 255 255 255
-0.64814 -0.299891 1.17642 0 0.994522 0.104528 255 255 255 255
-0.666678 -0.34337 1.59009 0 0.994522 0.104528 255 255 255 255
-0.410068 -0.295464 1.1343 0 0.994522 0.104528 255 255 255 255
-0.477354 -0.345022 1.60581 0 0.994522 0.104528 255 255 255 255
-0.541409 -0.249314 0.695206 0 0.994522 0.104528 255 255 255 255
-1.04676 -0.314165 1.31222 0 0.994522 0.104528 255 255 255 255
-0.810621 -0.322051 1.38725 0 0.994522 0.104528 255 255 255 255
-0.580339 -0.319194 1.36007 0 0.994522 0.104528 255 255 255 255
-0.399564 -0.25506 0.749876 0 0.994522 0.104528 255 255 255 255
-0.268391 -0.204368 0.267576 0 0.994522 0.104528 255 255 255 255
-0.899607 -0.294957 1.12947 0 0.994522 0.104528 255 255 255 255
-1.00912 -0.336694 1.52657 0 0.994522 0.104528 255 255 255 255
-0.311187 -0.215344 0.372003 0 0.994522 0.104528 255 255 255 255
-0.791414 -0.306096 1.23545 0 0.994522 0.104528 255 255 255 255
-0.440116 -0.33404 1.50132 0 0.994522 0.104528 255 255 255 255
-0.675123 -0.328416 1.44781 0 0.994522 0.104528 255 255 255 255
-0.54295 -0.274236 0.932322 0 0.994522 0.104528 255 255 255 255
-0.79068 -0.344916 1.6048 0 0.994522 0.104528 255 255 255 255
-0.373345 -0.26488 0.843308 0 0.994522 0.104528 255 255 255 255
-0.395686 -0.307226 1.2462 0 0.994522 0.104528 255 255 255 255
-0.641496 -0.258912 0.786528 0 0.994522 0.104528 255 255 255 255
-1.19327 -0.331678 1.47885 0 0.994522 0.104528 255 255 255 255
-0.519761 -0.292858 1.1095 0 0.994522 0.104528 255 255 255 255
-0.842687 -0.283998 1.02521 0 0.994522 0.104528 255 255 255 255
-1.00649 -0.302994 1.20594 0 0.994522 0.104528 255 255 255 255
-0.690194 -0.289648 1.07896 0 0.994522 0.104528 255 255 255 255
-0.499291 -0.236873 0.576837 0 0.994522 0.104528 255 255 255 255
-0.572694 -0.347981 1.63396 0 0.994522 0.104528 255 255 255 255
-0.33678 -0.245915 0.662867 0 0.994522 0.104528 255 255 255 255
-0.74232 -0.269181 0.88423 0 0.994522 0.104528 255 255 255 255
-0.607469 -0.309838 1.27105 0 0.994522 0.104528 255 255 255 255
-0.417986 -0.352432 1.67631 0 0.994522 0.104528 255 255 255 255
0 0 0.05 0 0 1 255 255 255 255
-0.079468 -0.079468 0.05 0 0 1 255 255 255 255
0.079468 -0.079468 0.05 0 0 1 255 255 255 255
-0.083158 0.083158 0.05 0 0 1 255 255 255 255
0.079468 0.079468 0.05 0 0 1 255 255 255 255
0.104387 0 0.05 0 0 1 255 255 255 255
0 -0.115077 0.05 0 0 1 255 255 255 255
-0 0.118839 0.05 0 0 1 255 255 255 255
-0.118839 0 0.05 0 0 1 255 255 255 255
2.41785 0.401756 0.409556 0.986474 0.163915 0 255 255 255 255
2.39512 0.520406 0.416373 0.977199 0.212324 0 255 255 255 255
2.36646 0.638181 0.439638 0.965507 0.260376 0 255 255 255 255
2.33106 0.757322 0.429431 0.951067 0.308985 0 255 255 255 255
2.28581 0.88457 0.424452 0.932604 0.360902 0 255 255 255 255
2.23428 1.00768 0.421657 0.911577 0.411129 0 255 255 255 255
2.18301 1.11438 0.424018 0.890663 0.454665 0 255 255 255 255
2.01939 1.38906 0.448472 0.823903 0.566731 0 255 255 255 255
2.0707 1.31133 0.415947 0.844841 0.535018 0 255 255 255 255
1.8194 1.64231 0.438356 0.742308 0.670059 0 255 255 255 255
1.89645 1.55271 0.419383 0.773744 0.633498 0 255 255 255 255
1.73282 1.73342 0.428536 0.706985 0.707229 0 255 255 255 255
1.62857 1.83171 0.429022 0.664449 0.747333 0 255 255 255 255
1.51649 1.92553 0.426041 0.618722 0.78561 0 255 255 255 255
1.39991 2.01187 0.423902 0.571161 0.820838 0 255 255 255 255
1.27895 2.09086 0.422538 0.521807 0.853063 0 255 255 255 255
1.15412 2.16227 0.421564 0.470878 0.882198 0 255 255 255 255
1.02637 2.22575 0.420665 0.418754 0.9081 0 255 255 255 255
0.897248 2.28087 0.419631 0.366074 0.930586 0 255 255 255 255
0.770229 2.32683 0.418756 0.314251 0.94934 0 255 255 255 255
